3.00000000 0.00000000 0.00000000 
3.21497044 0.00000000 0.41988910 
3.41988910 0.00000000 0.76216206 
3.60517422 0.00000000 0.96354999 
3.76216206 0.00000000 0.98682652 
3.88351204 0.00000000 0.82768900 
3.96354999 0.00000000 0.51555386 
3.99853341 0.00000000 0.10811902 
3.98682652 0.00000000 -0.31930153 
3.92897672 0.00000000 -0.68769946 
3.82768900 0.00000000 -0.92897672 
3.68769946 0.00000000 -0.99853341 
3.51555386 0.00000000 -0.88351204 
3.31930153 0.00000000 -0.60517422 
3.10811902 0.00000000 -0.21497044 
2.89188098 0.00000000 0.21497044 
2.68069847 0.00000000 0.60517422 
2.48444614 0.00000000 0.88351204 
2.31230054 0.00000000 0.99853341 
2.17231100 0.00000000 0.92897672 
2.07102328 0.00000000 0.68769946 
2.01317348 0.00000000 0.31930153 
2.00146659 0.00000000 -0.10811902 
2.03645001 0.00000000 -0.51555386 
2.11648796 0.00000000 -0.82768900 
2.23783794 0.00000000 -0.98682652 
2.39482578 0.00000000 -0.96354999 
2.58011090 0.00000000 -0.76216206 
2.78502956 0.00000000 -0.41988910 
3.00000000 0.00000000 -0.00000000 
2.92986167 0.64491132 0.00000000 
3.09423890 0.68109348 0.44067009 
3.25705248 0.71693147 0.80309223 
3.41568017 0.75184806 1.02333246 
3.56564117 0.78485697 1.06344592 
3.70026287 0.81448945 0.91836150 
3.81093010 0.83884915 0.61670974 
3.88791691 0.85579523 0.21544567 
3.92168261 0.86322762 -0.21073506 
3.90441609 0.85942697 -0.58322808 
3.83155306 0.84338861 -0.83404210 
3.70298242 0.81508807 -0.91832658 
3.52370177 0.77562541 -0.82259168 
3.30377121 0.72721504 -0.56710409 
3.05753294 0.67301389 -0.20202055 
2.80219039 0.61680875 0.20202055 
2.55595212 0.56260761 0.56710409 
2.33602157 0.51419723 0.82259168 
2.15674092 0.47473457 0.91832658 
2.02817027 0.44643404 0.83404210 
1.95530724 0.43039567 0.58322808 
1.93804072 0.42659502 0.21073506 
1.97180643 0.43402742 -0.21544567 
2.04879323 0.45097349 -0.61670974 
2.15946046 0.47533319 -0.91836150 
2.29408216 0.50496567 -1.06344592 
2.44404316 0.53797458 -1.02333246 
2.60267085 0.57289118 -0.80309223 
2.76548444 0.60872916 -0.44067009 
2.92986167 0.64491132 -0.00000000 
2.72272626 1.25966730 0.00000000 
2.83134562 1.30991997 0.45628462 
2.94619857 1.36305660 0.83460687 
3.07113612 1.42085887 1.07111730 
3.20574207 1.48313422 1.12759738 
3.34434949 1.54726084 0.99826706 
3.47618983 1.60825667 0.71063526 
3.58668893 1.65937900 0.32024642 
3.65970300 1.69315891 -0.09969791 
3.68030256 1.70268928 -0.47191889 
3.63759915 1.68293258 -0.72932909 
3.52708911 1.63180519 -0.82735320 
3.35206580 1.55083078 -0.75202718 
3.12381198 1.44522932 -0.52238519 
2.86049943 1.32340796 -0.18670216 
2.58495309 1.19592665 0.18670216 
2.32164054 1.07410529 0.52238519 
2.09338672 0.96850383 0.75202718 
1.91836341 0.88752942 0.82735320 
1.80785337 0.83640203 0.72932909 
1.76514995 0.81664533 0.47191889 
1.78574952 0.82617570 0.09969791 
1.85876359 0.85995561 -0.32024642 
1.96926269 0.91107794 -0.71063526 
2.10110303 0.97207377 -0.99826706 
2.23971045 1.03620039 -1.12759738 
2.37431639 1.09847574 -1.07111730 
2.49925395 1.15627800 -0.83460687 
2.61410690 1.20941464 -0.45628462 
2.72272626 1.25966730 -0.00000000 
2.38827920 1.81552265 0.00000000 
2.44372404 1.85767072 0.46654963 
2.51131516 1.90905216 0.85633652 
2.59990643 1.97639749 1.10634426 
2.71242447 2.06193147 1.17852879 
2.84442510 2.16227575 1.06646885 
2.98415014 2.26849196 0.79622923 
3.11410972 2.36728466 0.42129258 
3.21392543 2.44316259 0.01250811 
3.26392682 2.48117266 -0.35507688 
3.24884449 2.46970737 -0.61606537 
3.16091444 2.40286469 -0.72667987 
3.00180662 2.28191407 -0.67264586 
2.78299819 2.11558022 -0.47154180 
2.52449050 1.91906779 -0.16919485 
2.25206790 1.71197751 0.16919485 
1.99356021 1.51546507 0.47154180 
1.77475177 1.34913122 0.67264586 
1.61564395 1.22818060 0.72667987 
1.52771390 1.16133792 0.61606537 
1.51263158 1.14987263 0.35507688 
1.56263297 1.18788270 -0.01250811 
1.66244868 1.26376063 -0.42129258 
1.79240826 1.36255333 -0.79622923 
1.93213329 1.46876954 -1.06646885 
2.06413393 1.56911382 -1.17852879 
2.17665196 1.65464781 -1.10634426 
2.26524323 1.72199314 -0.85633652 
2.33283435 1.77337457 -0.46654963 
2.38827920 1.81552265 -0.00000000 
1.94215885 2.28648617 0.00000000 
1.95432650 2.30081102 0.47134477 
1.98168663 2.33302187 0.86802640 
2.03580788 2.39673832 1.12860035 
2.12171911 2.49788084 1.21564304 
2.23627695 2.63274875 1.12216727 
2.36815123 2.78800316 0.87248815 
2.49945900 2.94259062 0.51739946 
2.60876651 3.07127737 0.12456748 
2.67491852 3.14915754 -0.23407192 
2.68099324 3.15630924 -0.49557885 
2.61764975 3.08173552 -0.61748687 
2.48523896 2.92584950 -0.58537837 
2.29426984 2.70102327 -0.41517001 
2.06411990 2.43006981 -0.14970389 
1.82019781 2.14290253 0.14970389 
1.59004786 1.87194906 0.41517001 
1.39907874 1.64712283 0.58537837 
1.26666796 1.49123681 0.61748687 
1.20332447 1.41666309 0.49557885 
1.20939919 1.42381479 0.23407192 
1.27555120 1.50169496 -0.12456748 
1.38485871 1.63038172 -0.51739946 
1.51616648 1.78496917 -0.87248815 
1.64804076 1.94022358 -1.12216727 
1.76259860 2.07509149 -1.21564304 
1.84850983 2.17623401 -1.12860035 
1.90263107 2.23995047 -0.86802640 
1.92999121 2.27216131 -0.47134477 
1.94215885 2.28648617 -0.00000000 
1.40522532 2.65053613 0.00000000 
1.39010675 2.62201947 0.47061383 
1.38969730 2.62124718 0.86953947 
1.41543005 2.66978429 1.13762463 
1.47281751 2.77802852 1.23850497 
1.55995252 2.94238259 1.16470930 
1.66745393 3.14515175 0.93851794 
1.77988619 3.35722150 0.60744031 
1.87840522 3.54304809 0.23516641 
1.94415100 3.66705780 -0.11032269 
1.96176424 3.70027990 -0.36928211 
1.92237539 3.62598465 -0.50105441 
1.82550670 3.44327091 -0.49124786 
1.67952329 3.16791699 -0.35393073 
1.50053304 2.83030556 -0.12845779 
1.30991760 2.47076670 0.12845779 
1.13092735 2.13315527 0.35393073 
0.98494394 1.85780136 0.49124786 
0.88807525 1.67508762 0.50105441 
0.84868640 1.60079237 0.36928211 
0.86629964 1.63401446 0.11032269 
0.93204543 1.75802417 -0.23516641 
1.03056445 1.94385077 -0.60744031 
1.14299672 2.15592052 -0.93851794 
1.25049813 2.35868968 -1.16470930 
1.33763314 2.52304375 -1.23850497 
1.39502060 2.63128798 -1.13762463 
1.42075334 2.67982509 -0.86953947 
1.42034390 2.67905279 -0.47061383 
1.40522532 2.65053613 -0.00000000 
0.80258502 2.89064998 0.00000000 
0.78038830 2.81070464 0.46436537 
0.76861694 2.76830801 0.86085798 
0.77547353 2.79300323 1.13331130 
0.80513990 2.89985184 1.24684658 
0.85674928 3.08573202 1.19359618 
0.92433063 3.32913804 0.99354446 
0.99774552 3.59355458 0.69035948 
1.06445213 3.83381010 0.34300823 
1.11177552 4.00425352 0.01471999 
1.12926661 4.06725073 -0.23865588 
1.11071331 4.00042778 -0.37874755 
1.05542807 3.80130836 -0.39135791 
0.96856751 3.48846488 -0.28854194 
0.86041591 3.09893804 -0.10570563 
0.74475412 2.68236191 0.10570563 
0.63660252 2.29283508 0.28854194 
0.54974196 1.97999160 0.39135791 
0.49445672 1.78087217 0.37874755 
0.47590342 1.71404923 0.23865588 
0.49339451 1.77704644 -0.01471999 
0.54071790 1.94748985 -0.34300823 
0.60742451 2.18774538 -0.69035948 
0.68083941 2.45216192 -0.99354446 
0.74842075 2.69556794 -1.19359618 
0.80003013 2.88144811 -1.24684658 
0.82969650 2.98829673 -1.13331130 
0.83655309 3.01299194 -0.86085798 
0.82478173 2.97059532 -0.46436537 
0.80258502 2.89064998 -0.00000000 
0.16241673 2.99560024 0.00000000 
0.15523304 2.86310491 0.45267265 
0.15054402 2.77662103 0.84208372 
0.15032864 2.77264864 1.11571093 
0.15563237 2.87047018 1.24057004 
0.16632688 3.06771880 1.20848924 
0.18109394 3.34008113 1.03692258 
0.19763827 3.64522348 0.76518481 
0.21309156 3.93024259 0.44682859 
0.22453373 4.14128099 0.13959008 
0.22953572 4.23353730 -0.10523163 
0.22662318 4.17981853 -0.25200021 
0.21557467 3.97604076 -0.28687965 
0.19749817 3.64263936 -0.21977026 
0.17466993 3.22159729 -0.08171418 
0.15016352 2.76960320 0.08171418 
0.12733528 2.34856112 0.21977026 
0.10925879 2.01515972 0.28687965 
0.09821028 1.81138196 0.25200021 
0.09529773 1.75766318 0.10523163 
0.10029972 1.84991949 -0.13959008 
0.11174189 2.06095789 -0.44682859 
0.12719518 2.34597700 -0.76518481 
0.14373951 2.65111935 -1.03692258 
0.15850657 2.92348168 -1.20848924 
0.16920108 3.12073031 -1.24057004 
0.17450481 3.21855184 -1.11571093 
0.17428943 3.21457946 -0.84208372 
0.16960041 3.12809558 -0.45267265 
0.16241673 2.99560024 -0.00000000 
-0.48534599 2.96047957 0.00000000 
-0.45608697 2.78200743 0.43567276 
-0.43534556 2.65549042 0.81343680 
-0.42991952 2.62239304 1.08502987 
-0.44349162 2.70517919 1.21974895 
-0.47582357 2.90239538 1.20921386 
-0.52269392 3.18829189 1.06814374 
-0.57659631 3.51708192 0.83103905 
-0.62807289 3.83107516 0.54541030 
-0.66743894 4.07119744 0.26282361 
-0.68658100 4.18795885 0.02942636 
-0.68049576 4.15084052 -0.12229840 
-0.64828341 3.95435386 -0.17903799 
-0.59340864 3.61963257 -0.14842198 
-0.52317662 3.19123620 -0.05676470 
-0.44751536 2.72972293 0.05676470 
-0.37728334 2.30132657 0.14842198 
-0.32240857 1.96660528 0.17903799 
-0.29019622 1.77011862 0.12229840 
-0.28411098 1.73300029 -0.02942636 
-0.30325304 1.84976169 -0.26282361 
-0.34261909 2.08988397 -0.54541030 
-0.39409567 2.40387721 -0.83103905 
-0.44799806 2.73266725 -1.06814374 
-0.49486841 3.01856375 -1.20921386 
-0.52720036 3.21577995 -1.21974895 
-0.54077246 3.29856609 -1.08502987 
-0.53534642 3.26546872 -0.81343680 
-0.51460501 3.13895171 -0.43567276 
-0.48534599 2.96047957 -0.00000000 
-1.11041447 2.78693016 0.00000000 
-1.02643050 2.57614631 0.41356500 
-0.96413705 2.41980152 0.77525308 
-0.94092680 2.36154820 1.04162783 
-0.96640483 2.42549322 1.18462743 
-1.04036451 2.61111802 1.19576156 
-1.15261523 2.89284608 1.08684188 
-1.28470331 3.22436218 0.88715012 
-1.41321585 3.54690432 0.63759757 
-1.51406160 3.80000807 0.38297577 
-1.56693997 3.93272277 0.16373936 
-1.55917114 3.91322447 0.00883724 
-1.48817575 3.73503948 -0.06909728 
-1.36213948 3.41871230 -0.07533358 
-1.19873079 3.00858741 -0.03114971 
-1.02209815 2.56527291 0.03114971 
-0.85868946 2.15514802 0.07533358 
-0.73265318 1.83882083 0.06909728 
-0.66165780 1.66063585 -0.00883724 
-0.65388896 1.64113755 -0.16373936 
-0.70676734 1.77385225 -0.38297577 
-0.80761309 2.02695600 -0.63759757 
-0.93612562 2.34949814 -0.88715012 
-1.06821371 2.68101424 -1.08684188 
-1.18046442 2.96274230 -1.19576156 
-1.25442411 3.14836710 -1.18462743 
-1.27990213 3.21231212 -1.04162783 
-1.25669189 3.15405880 -0.77525308 
-1.19439843 2.99771401 -0.41356500 
-1.11041447 2.78693016 -0.00000000 
-1.68356120 2.48306699 0.00000000 
-1.53188181 2.25935664 0.38660857 
-1.41604346 2.08850785 0.72798022 
-1.36489712 2.01307264 0.98601366 
-1.39462282 2.05691478 1.13561723 
-1.50542432 2.22033475 1.16829005 
-1.68122492 2.47962125 1.09279780 
-1.89243335 2.79113038 0.93286016 
-2.10127777 3.09915285 0.72230959 
-2.26872851 3.34612421 0.49863789 
-2.36173255 3.48329491 0.29613266 
-2.35942152 3.47988640 0.13986928 
-2.25714113 3.32903411 0.04165354 
-2.06754909 3.04940677 -0.00136196 
-1.81856756 2.68218648 -0.00516951 
-1.54855483 2.28394751 0.00516951 
-1.29957330 1.91672722 0.00136196 
-1.10998126 1.63709988 -0.04165354 
-1.00770087 1.48624759 -0.13986928 
-1.00538984 1.48283908 -0.29613266 
-1.09839388 1.62000978 -0.49863789 
-1.26584462 1.86698114 -0.72230959 
-1.47468904 2.17500361 -0.93286016 
-1.68589747 2.48651274 -1.09279780 
-1.86169808 2.74579924 -1.16829005 
-1.97249957 2.90921921 -1.13561723 
-2.00222527 2.95306135 -0.98601366 
-1.95107893 2.87762614 -0.72798022 
-1.83524058 2.70677735 -0.38660857 
-1.68356120 2.48306699 -0.00000000 
-2.17798648 2.06309838 0.00000000 
-1.95256601 1.84956877 0.35511951 
-1.77679133 1.68306615 0.67217246 
-1.69075824 1.60157127 0.91883937 
-1.71724534 1.62666119 1.07329295 
-1.85718192 1.75921616 1.12712140 
-2.08920382 1.97899898 1.08594167 
-2.37339198 2.24819631 0.96763327 
-2.65851261 2.51827691 0.79855319 
-2.89142698 2.73890512 0.60845394 
-3.02693440 2.86726457 0.42505408 
-3.03622793 2.87606787 0.26926147 
-2.91239500 2.75876709 0.15191601 
-2.67193815 2.53099426 0.07262562 
-2.35202321 2.22795473 0.02087129 
-2.00394974 1.89824202 -0.02087129 
-1.68403480 1.59520249 -0.07262562 
-1.44357795 1.36742967 -0.15191601 
-1.31974502 1.25012889 -0.26926147 
-1.32903855 1.25893218 -0.42505408 
-1.46454597 1.38729164 -0.60845394 
-1.69746034 1.60791984 -0.79855319 
-1.98258097 1.87800045 -0.96763327 
-2.26676913 2.14719777 -1.08594167 
-2.49879103 2.36698059 -1.12712140 
-2.63872761 2.49953557 -1.07329295 
-2.66521471 2.52462548 -0.91883937 
-2.57918162 2.44313061 -0.67217246 
-2.40340694 2.27662798 -0.35511951 
-2.17798648 2.06309838 -0.00000000 
-2.57057153 1.54666157 0.00000000 
-2.27317915 1.36772651 0.31946700 
-2.03756437 1.22596181 0.60848409 
-1.91376708 1.15147545 0.84089254 
-1.93053629 1.16156514 0.99838530 
-2.08974165 1.25735583 1.07273829 
-2.36579553 1.42345194 1.06635385 
-2.71020318 1.63067515 0.99106176 
-3.06040854 1.84138672 0.86543448 
-3.35130586 2.01641383 0.71113642 
-3.52729179 2.12230105 0.54899213 
-3.55262921 2.13754607 0.39549682 
-3.41820317 2.05666461 0.26039741 
-3.14341296 1.89132882 0.14576173 
-2.77284095 1.66836304 0.04666739 
-2.36830211 1.42496010 -0.04666739 
-1.99773010 1.20199432 -0.14576173 
-1.72293988 1.03665853 -0.26039741 
-1.58851385 0.95577707 -0.39549682 
-1.61385127 0.97102209 -0.54899213 
-1.78983720 1.07690931 -0.71113642 
-2.08073452 1.25193642 -0.86543448 
-2.43093988 1.46264799 -0.99106176 
-2.77534753 1.66987120 -1.06635385 
-3.05140140 1.83596731 -1.07273829 
-3.21060677 1.93175800 -0.99838530 
-3.22737598 1.94184770 -0.84089254 
-3.10357869 1.86736134 -0.60848409 
-2.86796391 1.72559663 -0.31946700 
-2.57057153 1.54666157 -0.00000000 
-2.84295951 0.95790459 0.00000000 
-2.48324993 0.83670432 0.28006903 
-2.19458352 0.73944128 0.53766180 
-2.03465837 0.68555622 0.75308701 
-2.03695918 0.68633146 0.91177250 
-2.20438426 0.74274354 1.00577830 
-2.50855434 0.84523037 1.03426402 
-2.89493830 0.97541828 1.00287097 
-3.29285405 1.10949171 0.92216935 
-3.62849934 1.22258377 0.80548147 
-3.83860567 1.29337684 0.66649375 
-3.88219071 1.30806235 0.51709534 
-3.74823406 1.26292710 0.36582588 
-3.45785300 1.16508633 0.21718893 
-3.06056934 1.03122588 0.07191637 
-2.62534969 0.88458330 -0.07191637 
-2.22806603 0.75072285 -0.21718893 
-1.93768496 0.65288208 -0.36582588 
-1.80372832 0.60774683 -0.51709534 
-1.84731335 0.62243234 -0.66649375 
-2.05741969 0.69322541 -0.80548147 
-2.39306498 0.80631747 -0.92216935 
-2.79098072 0.94039090 -1.00287097 
-3.17736469 1.07057881 -1.03426402 
-3.48153476 1.17306564 -1.00577830 
-3.64895985 1.22947772 -0.91177250 
-3.65126066 1.23025296 -0.75308701 
-3.49133551 1.17636790 -0.53766180 
-3.20266909 1.07910486 -0.28006903 
-2.84295951 0.95790459 -0.00000000 
-2.98241387 0.32435706 0.00000000 
-2.57716841 0.28028396 0.23738751 
-2.24842995 0.24453149 0.46053592 
-2.05848851 0.22387412 0.65645222 
-2.04383169 0.22228009 0.81446999 
-2.20833557 0.24017097 0.92702648 
-2.52249363 0.27433772 0.99004839 
-2.92882890 0.31852934 1.00292242 
-3.35249063 0.36460533 0.96809262 
-3.71507831 0.40403911 0.89038300 
-3.94913795 0.42949463 0.77618134 
-4.01065104 0.43618459 0.63263138 
-3.88720648 0.42275918 0.46696538 
-3.60034349 0.39156095 0.28606978 
-3.20162985 0.34819823 0.09632219 
-2.76319789 0.30051588 -0.09632219 
-2.36448425 0.25715316 -0.28606978 
-2.07762126 0.22595493 -0.46696538 
-1.95417671 0.21252952 -0.63263138 
-2.01568979 0.21921948 -0.77618134 
-2.24974943 0.24467500 -0.89038300 
-2.61233711 0.28410878 -0.96809262 
-3.03599885 0.33018477 -1.00292242 
-3.44233411 0.37437640 -0.99004839 
-3.75649218 0.40854314 -0.92702648 
-3.92099605 0.42643402 -0.81446999 
-3.90633924 0.42483999 -0.65645222 
-3.71639780 0.40418262 -0.46053592 
-3.38765933 0.36843015 -0.23738751 
-2.98241387 0.32435706 -0.00000000 
-2.98241387 -0.32435706 0.00000000 
-2.55402833 -0.27776732 0.19192283 
-2.20323179 -0.23961590 0.37801068 
-1.99334568 -0.21678941 0.55212113 
-1.96179021 -0.21335754 0.70761857 
-2.11323160 -0.22982779 0.83740612 
-2.41877414 -0.26305754 0.93422534 
-2.82134368 -0.30683962 0.99121553 
-3.24626558 -0.35305266 1.00266589 
-3.61508039 -0.39316369 0.96484559 
-3.86004295 -0.41980497 0.87676891 
-3.93662494 -0.42813376 0.74075040 
-3.83171068 -0.41672365 0.56263013 
-3.56597289 -0.38782292 0.35159672 
-3.18999159 -0.34693249 0.11959872 
-2.77483615 -0.30178162 -0.11959872 
-2.39885485 -0.26089119 -0.35159672 
-2.13311707 -0.23199046 -0.56263013 
-2.02820280 -0.22058035 -0.74075040 
-2.10478479 -0.22890914 -0.87676891 
-2.34974736 -0.25555043 -0.96484559 
-2.71856217 -0.29566145 -1.00266589 
-3.14348407 -0.34187449 -0.99121553 
-3.54605361 -0.38565657 -0.93422534 
-3.85159614 -0.41888632 -0.83740612 
-4.00303753 -0.43535657 -0.70761857 
-3.97148206 -0.43192470 -0.55212113 
-3.76159596 -0.40909821 -0.37801068 
-3.41079941 -0.37094679 -0.19192283 
-2.98241387 -0.32435706 -0.00000000 
-2.84295951 -0.95790459 0.00000000 
-2.41733431 -0.81449476 0.14420803 
-2.06583442 -0.69606066 0.29105360 
-1.84909595 -0.62303297 0.44131692 
-1.80326014 -0.60758908 0.59247097 
-1.93347611 -0.65146395 0.73796794 
-2.21310443 -0.74568170 0.86744936 
-2.58876155 -0.87225533 0.96788755 
-2.99026694 -1.00753824 1.02548382 
-3.34365051 -1.12660703 1.02799626 
-3.58481434 -1.20786458 0.96707716 
-3.67132387 -1.23701304 0.84018479 
-3.59015162 -1.20966292 0.65169856 
-3.35994670 -1.13209786 0.41300151 
-3.02741719 -1.02005562 0.14147306 
-2.65850184 -0.89575356 -0.14147306 
-2.32597232 -0.78371132 -0.41300151 
-2.09576741 -0.70614626 -0.65169856 
-2.01459516 -0.67879614 -0.84018479 
-2.10110469 -0.70794460 -0.96707716 
-2.34226852 -0.78920215 -1.02799626 
-2.69565208 -0.90827094 -1.02548382 
-3.09715747 -1.04355386 -0.96788755 
-3.47281460 -1.17012748 -0.86744936 
-3.75244292 -1.26434523 -0.73796794 
-3.88265889 -1.30822010 -0.59247097 
-3.83682308 -1.29277622 -0.44131692 
-3.62008461 -1.21974852 -0.29105360 
-3.26858471 -1.10131442 -0.14420803 
-2.84295951 -0.95790459 -0.00000000 
-2.57057153 -1.54666157 0.00000000 
-2.17462226 -1.30842680 0.09480253 
-1.84505901 -1.11013517 0.20068419 
-1.63631458 -0.98453782 0.32533868 
-1.58111002 -0.95132233 0.47037718 
-1.68468040 -1.01363857 0.62987776 
-1.92403951 -1.15765616 0.79050332 
-2.25240841 -1.35522917 0.93321196 
-2.60798099 -1.56917010 1.03627890 
-2.92540055 -1.76015511 1.07909461 
-3.14782357 -1.89398260 1.04604733 
-3.23734160 -1.94784381 0.92976879 
-3.18183866 -1.91444880 0.73312642 
-2.99702369 -1.80324932 0.46956424 
-2.72327193 -1.63853835 0.16168876 
-2.41787113 -1.45478479 -0.16168876 
-2.14411936 -1.29007382 -0.46956424 
-1.95930439 -1.17887434 -0.73312642 
-1.90380146 -1.14547933 -0.92976879 
-1.99331949 -1.19934054 -1.04604733 
-2.21574251 -1.33316803 -1.07909461 
-2.53316206 -1.52415304 -1.03627890 
-2.88873465 -1.73809397 -0.93321196 
-3.21710355 -1.93566698 -0.79050332 
-3.45646266 -2.07968458 -0.62987776 
-3.56003304 -2.14200081 -0.47037718 
-3.50482848 -2.10878533 -0.32533868 
-3.29608405 -1.98318797 -0.20068419 
-2.96652080 -1.78489634 -0.09480253 
-2.57057153 -1.54666157 -0.00000000 
-2.17798648 -2.06309838 0.00000000 
-1.83703288 -1.74012998 0.04428556 
-1.55112728 -1.46930580 0.10796194 
-1.36551506 -1.29348457 0.20554614 
-1.30763105 -1.23865392 0.34276866 
-1.38234963 -1.30943112 0.51440284 
-1.57135615 -1.48846761 0.70428936 
-1.83674292 -1.73985531 0.88759532 
-2.12815526 -2.01589574 1.03492455 
-2.39216027 -2.26597457 1.11754156 
-2.58210349 -2.44589835 1.11275354 
-2.66663261 -2.52596859 1.00845210 
-2.63531715 -2.49630500 0.80595905 
-2.50033361 -2.36844180 0.52062176 
-2.29391602 -2.17291267 0.18000881 
-2.06205693 -1.95328408 -0.18000881 
-1.85563934 -1.75775495 -0.52062176 
-1.72065580 -1.62989175 -0.80595905 
-1.68934034 -1.60022817 -1.00845210 
-1.77386946 -1.68029840 -1.11275354 
-1.96381268 -1.86022218 -1.11754156 
-2.22781769 -2.11030101 -1.03492455 
-2.51923003 -2.38634144 -0.88759532 
-2.78461680 -2.63772914 -0.70428936 
-2.97362332 -2.81676563 -0.51440284 
-3.04834190 -2.88754283 -0.34276866 
-2.99045789 -2.83271218 -0.20554614 
-2.80484567 -2.65689095 -0.10796194 
-2.51894007 -2.38606677 -0.04428556 
-2.17798648 -2.06309838 -0.00000000 
-1.68356120 -2.48306699 0.00000000 
-1.41886551 -2.09267006 -0.00675063 
-1.19529536 -1.76292877 0.01397394 
-1.04673917 -1.54382478 0.08334376 
-0.99393174 -1.46593964 0.21114148 
-1.04093596 -1.53526567 0.39289702 
-1.17465825 -1.73249130 0.60981825 
-1.36747486 -2.01687453 0.83157244 
-1.58247394 -2.33397444 1.02143665 
-1.78033803 -2.62580214 1.14288635 
-1.92659201 -2.84151063 1.16641374 
-1.99787762 -2.94664904 1.07531223 
-1.98609925 -2.92927724 0.86934254 
-1.89968285 -2.80182259 0.56557546 
-1.76172620 -2.59835175 0.19621842 
-1.60539619 -2.36778224 -0.19621842 
-1.46743954 -2.16431140 -0.56557546 
-1.38102314 -2.03685675 -0.86934254 
-1.36924477 -2.01948495 -1.07531223 
-1.44053038 -2.12462336 -1.16641374 
-1.58678436 -2.34033185 -1.14288635 
-1.78464845 -2.63215954 -1.02143665 
-1.99964753 -2.94925946 -0.83157244 
-2.19246414 -3.23364269 -0.60981825 
-2.32618644 -3.43086831 -0.39289702 
-2.37319066 -3.50019435 -0.21114148 
-2.32038322 -3.42230921 -0.08334376 
-2.17182703 -3.20320522 -0.01397394 
-1.94825689 -2.87346393 0.00675063 
-1.68356120 -2.48306699 0.00000000 
-1.11041447 -2.78693016 0.00000000 
-0.93712458 -2.35200535 -0.05770766 
-0.78970105 -1.98200018 -0.08017790 
-0.68951717 -1.73055759 -0.03983575 
-0.64977718 -1.63081776 0.07703887 
-0.67332402 -1.68991585 0.26678484 
-0.75232429 -1.88819159 0.50819757 
-0.86987909 -2.18323189 0.76580013 
-1.00325506 -2.51798033 0.99597334 
-1.12813356 -2.83140172 1.15483185 
-1.22309024 -3.06972503 1.20639880 
-1.27347775 -3.19618814 1.12956531 
-1.27399741 -3.19749239 0.92253379 
-1.22949093 -3.08578954 0.60389831 
-1.15381452 -2.89585609 0.21012755 
-1.06701441 -2.67800423 -0.21012755 
-0.99133800 -2.48807078 -0.60389831 
-0.94683152 -2.37636793 -0.92253379 
-0.94735118 -2.37767218 -1.12956531 
-0.99773869 -2.50413529 -1.20639880 
-1.09269538 -2.74245860 -1.15483185 
-1.21757387 -3.05587999 -0.99597334 
-1.35094984 -3.39062843 -0.76580013 
-1.46850464 -3.68566873 -0.50819757 
-1.54750492 -3.88394447 -0.26678484 
-1.57105175 -3.94304256 -0.07703887 
-1.53131177 -3.84330272 0.03983575 
-1.43112788 -3.59186014 0.08017790 
-1.28370435 -3.22185497 0.05770766 
-1.11041447 -2.78693016 0.00000000 
-0.48534599 -2.96047957 0.00000000 
-0.41105692 -2.50733627 -0.10798813 
-0.34739101 -2.11899143 -0.17338972 
-0.30315313 -1.84915232 -0.16254823 
-0.28384085 -1.73135260 -0.05796696 
-0.29075352 -1.77351799 0.13754485 
-0.32085825 -1.95714873 0.40061875 
-0.36743263 -2.24123989 0.69104951 
-0.42136146 -2.57019121 0.95883316 
-0.47284536 -2.88422911 1.15323800 
-0.51320425 -3.13040744 1.23223994 
-0.53644274 -3.27215598 1.17057527 
-0.54028988 -3.29562249 0.96490917 
-0.52652426 -3.21165592 0.63514100 
-0.50052883 -3.05309081 0.22157313 
-0.47016315 -2.86786832 -0.22157313 
-0.44416772 -2.70930321 -0.63514100 
-0.43040210 -2.62533664 -0.96490917 
-0.43424924 -2.64880316 -1.17057527 
-0.45748773 -2.79055169 -1.23223994 
-0.49784662 -3.03673003 -1.15323800 
-0.54933052 -3.35076792 -0.95883316 
-0.60325935 -3.67971925 -0.69104951 
-0.64983373 -3.96381041 -0.40061875 
-0.67993846 -4.14744115 -0.13754485 
-0.68685113 -4.18960653 0.05796696 
-0.66753884 -4.07180682 0.16254823 
-0.62330097 -3.80196770 0.17338972 
-0.55963506 -3.41362286 0.10798813 
-0.48534599 -2.96047957 0.00000000 
0.16241673 -2.99560024 0.00000000 
0.13833438 -2.55142754 -0.15700254 
0.11753687 -2.16783998 -0.26456871 
0.10275638 -1.89522984 -0.28335497 
0.09571942 -1.76544074 -0.19229317 
0.09687470 -1.78674869 0.00669227 
0.10535004 -1.94306708 0.28834303 
0.11914435 -2.19748831 0.60819697 
0.13551791 -2.49948079 0.91045154 
0.15150761 -2.79439340 1.13812349 
0.16447175 -3.03350288 1.24363419 
0.17256367 -3.18274955 1.19786130 
0.17504739 -3.22855906 0.99597187 
0.17239813 -3.17969636 0.65893724 
0.16617078 -3.06483968 0.23042096 
0.15866267 -2.92636080 -0.23042096 
0.15243532 -2.81150412 -0.65893724 
0.14978607 -2.76264142 -0.99597187 
0.15226979 -2.80845093 -1.19786130 
0.16036170 -2.95769760 -1.24363419 
0.17332584 -3.19680709 -1.13812349 
0.18931554 -3.49171969 -0.91045154 
0.20568910 -3.79371217 -0.60819697 
0.21948342 -4.04813340 -0.28834303 
0.22795875 -4.20445179 -0.00669227 
0.22911404 -4.22575974 0.19229317 
0.22207708 -4.09597064 0.28335497 
0.20729658 -3.82336050 0.26456871 
0.18649907 -3.43977295 0.15700254 
0.16241673 -2.99560024 0.00000000 
0.80258502 -2.89064998 0.00000000 
0.68882059 -2.48090754 -0.20417623 
0.58976311 -2.12413476 -0.35264587 
0.51769660 -1.86457464 -0.40083964 
0.48049323 -1.73058021 -0.32436493 
0.48041298 -1.73029119 -0.12423876 
0.51390178 -1.85090691 0.17268676 
0.57241531 -2.06165360 0.51821387 
0.64410853 -2.31986927 0.85139570 
0.71607332 -2.57906302 1.10966553 
0.77670841 -2.79745088 1.24044796 
0.81778435 -2.94539301 1.21110351 
0.83582537 -3.01037093 1.01535771 
0.83255945 -2.99860814 0.67500805 
0.81436209 -2.93306715 0.23656732 
0.79080795 -2.84823280 -0.23656732 
0.77261058 -2.78269182 -0.67500805 
0.76934466 -2.77092903 -1.01535771 
0.78738569 -2.83590694 -1.21110351 
0.82846162 -2.98384908 -1.24044796 
0.88909671 -3.20223694 -1.10966553 
0.96106150 -3.46143069 -0.85139570 
1.03275473 -3.71964635 -0.51821387 
1.09126826 -3.93039304 -0.17268676 
1.12475705 -4.05100877 0.12423876 
1.12467680 -4.05071974 0.32436493 
1.08747343 -3.91672531 0.40083964 
1.01540692 -3.65716520 0.35264587 
0.91634944 -3.30039242 0.20417623 
0.80258502 -2.89064998 0.00000000 
1.40522532 -2.65053613 0.00000000 
1.21754605 -2.29653547 -0.24895615 
1.05264465 -1.98549844 -0.43658858 
0.92964565 -1.75349771 -0.51362482 
0.86101610 -1.62404865 -0.45263380 
0.85074126 -1.60466824 -0.25371322 
0.89399475 -1.68625297 0.05500589 
0.97834518 -1.84535477 0.42215520 
1.08626154 -2.04890662 0.78235803 
1.19844442 -2.26050598 1.06819775 
1.29736316 -2.44708652 1.22271862 
1.37034648 -2.58474765 1.21014663 
1.41166220 -2.66267737 1.02283942 
1.42321412 -2.68446661 0.68316500 
1.41374393 -2.66660393 0.23994014 
1.39670671 -2.63446833 -0.23994014 
1.38723652 -2.61660565 -0.68316500 
1.39878844 -2.63839489 -1.02283942 
1.44010417 -2.71632462 -1.21014663 
1.51308748 -2.85398574 -1.22271862 
1.61200622 -3.04056629 -1.06819775 
1.72418910 -3.25216565 -0.78235803 
1.83210547 -3.45571750 -0.42215520 
1.91645590 -3.61481930 -0.05500589 
1.95970938 -3.69640402 0.25371322 
1.94943454 -3.67702362 0.45263380 
1.88080500 -3.54757456 0.51362482 
1.75780599 -3.31557383 0.43658858 
1.59290460 -3.00453680 0.24895615 
1.40522532 -2.65053613 0.00000000 
1.94215885 -2.28648617 0.00000000 
1.70171393 -2.00341251 -0.29081728 
1.48827337 -1.75213087 -0.51541269 
1.32466538 -1.55951665 -0.62038823 
1.22609961 -1.44347606 -0.57559595 
1.19805862 -1.41046365 -0.38021311 
1.23588001 -1.45499043 -0.06331987 
1.32607863 -1.56118045 0.32114713 
1.44914295 -1.70606298 0.70414792 
1.58327449 -1.86397483 1.01420633 
1.70837278 -2.01125193 1.19065403 
1.80953153 -2.13034521 1.19500189 
1.87940969 -2.21261214 1.01832926 
1.91905742 -2.25928905 0.68331247 
1.93706883 -2.28049373 0.24049988 
1.94724888 -2.29247860 -0.24049988 
1.96526029 -2.31368328 -0.68331247 
2.00490802 -2.36036019 -1.01832926 
2.07478618 -2.44262713 -1.19500189 
2.17594492 -2.56172041 -1.19065403 
2.30104322 -2.70899751 -1.01420633 
2.43517475 -2.86690935 -0.70414792 
2.55823908 -3.01179188 -0.32114713 
2.64843770 -3.11798190 0.06331987 
2.68625909 -3.16250868 0.38021311 
2.65821810 -3.12949627 0.57559595 
2.55965233 -3.01345568 0.62038823 
2.39604434 -2.82084146 0.51541269 
2.18260378 -2.56955982 0.29081728 
1.94215885 -2.28648617 0.00000000 
2.38827920 -1.81552265 0.00000000 
2.11936799 -1.61110166 -0.32926885 
1.87776959 -1.42744333 -0.58819406 
1.68679522 -1.28226839 -0.71987815 
1.56244369 -1.18773881 -0.69180977 
1.51134658 -1.14889580 -0.50225536 
1.53030714 -1.16330924 -0.18090326 
1.60748232 -1.22197629 0.21637392 
1.72496186 -1.31128192 0.61768233 
1.86224936 -1.41564516 0.94832426 
1.99999403 -1.52035593 1.14463010 
2.12328583 -1.61407992 1.16584685 
2.22391822 -1.69057868 1.00188013 
2.30122319 -1.74934439 0.67544873 
2.36135617 -1.79505629 0.23823999 
2.41520222 -1.83598900 -0.23823999 
2.47533520 -1.88170090 -0.67544873 
2.55264017 -1.94046661 -1.00188013 
2.65327257 -2.01696537 -1.16584685 
2.77656437 -2.11068936 -1.14463010 
2.91430903 -2.21540013 -0.94832426 
3.05159653 -2.31976337 -0.61768233 
3.16907607 -2.40906900 -0.21637392 
3.24625126 -2.46773605 0.18090326 
3.26521182 -2.48214949 0.50225536 
3.21411470 -2.44330648 0.69180977 
3.08976317 -2.34877690 0.71987815 
2.89878880 -2.20360196 0.58819406 
2.65719040 -2.01994363 0.32926885 
2.38827920 -1.81552265 0.00000000 
2.72272626 -1.25966730 0.00000000 
2.45026459 -1.13361311 -0.36386004 
2.20185544 -1.01868680 -0.65407938 
1.99833555 -0.92452847 -0.81092816 
1.85464701 -0.85805108 -0.79991275 
1.77813566 -0.82265316 -0.61840912 
1.76809163 -0.81800629 -0.29636573 
1.81657514 -0.84043716 0.10906391 
1.91034218 -0.88381841 0.52397497 
2.03349288 -0.94079399 0.87132396 
2.17034359 -1.00410787 1.08518643 
2.30799491 -1.06779215 1.12302331 
2.43813645 -1.12800204 0.97368486 
2.55778180 -1.18335587 0.65966597 
2.66883537 -1.23473472 0.23318694 
2.77661715 -1.28459989 -0.23318694 
2.88767071 -1.33597874 -0.65966597 
3.00731606 -1.39133257 -0.97368486 
3.13745760 -1.45154246 -1.12302331 
3.27510893 -1.51522674 -1.08518643 
3.41195964 -1.57854062 -0.87132396 
3.53511034 -1.63551620 -0.52397497 
3.62887738 -1.67889745 -0.10906391 
3.67736089 -1.70132831 0.29636573 
3.66731686 -1.69668145 0.61840912 
3.59080550 -1.66128353 0.79991275 
3.44711697 -1.59480613 0.81092816 
3.24359708 -1.50064781 0.65407938 
2.99518793 -1.38572150 0.36386004 
2.72272626 -1.25966730 0.00000000 
2.92986167 -0.64491132 0.00000000 
2.67681120 -0.58921070 -0.39418530 
2.44171555 -0.53746224 -0.71229623 
2.24055825 -0.49318417 -0.89247078 
2.08568166 -0.45909325 -0.89863749 
1.98466702 -0.43685825 -0.72731259 
1.93991727 -0.42700808 -0.40835358 
1.94897358 -0.42900153 0.00047523 
2.00547162 -0.44143769 0.42412449 
2.10053734 -0.46236323 0.78410819 
2.22435391 -0.48961732 1.01301994 
2.36761371 -0.52115119 1.06703336 
2.52260386 -0.55526710 0.93407404 
2.68375433 -0.59073900 0.63614923 
2.84758839 -0.62680160 0.22540000 
3.01213494 -0.66302104 -0.22540000 
3.17596900 -0.69908364 -0.63614923 
3.33711947 -0.73455554 -0.93407404 
3.49210962 -0.76867145 -1.06703336 
3.63536943 -0.80020532 -1.01301994 
3.75918599 -0.82745941 -0.78410819 
3.85425171 -0.84838496 -0.42412449 
3.91074975 -0.86082112 -0.00047523 
3.91980606 -0.86281456 0.40835358 
3.87505631 -0.85296439 0.72731259 
3.77404168 -0.83072939 0.89863749 
3.61916508 -0.79663848 0.89247078 
3.41800778 -0.75236041 0.71229623 
3.18291213 -0.70061194 0.39418530 
2.92986167 -0.64491132 0.00000000 
3.00000000 -0.00000000 0.00000000 
2.78502956 -0.00000000 -0.41988910 
2.58011090 -0.00000000 -0.76216206 
2.39482578 -0.00000000 -0.96354999 
2.23783794 -0.00000000 -0.98682652 
2.11648796 -0.00000000 -0.82768900 
2.03645001 -0.00000000 -0.51555386 
2.00146659 -0.00000000 -0.10811902 
2.01317348 -0.00000000 0.31930153 
2.07102328 -0.00000000 0.68769946 
2.17231100 -0.00000000 0.92897672 
2.31230054 -0.00000000 0.99853341 
2.48444614 -0.00000000 0.88351204 
2.68069847 -0.00000000 0.60517422 
2.89188098 -0.00000000 0.21497044 
3.10811902 -0.00000000 -0.21497044 
3.31930153 -0.00000000 -0.60517422 
3.51555386 -0.00000000 -0.88351204 
3.68769946 -0.00000000 -0.99853341 
3.82768900 -0.00000000 -0.92897672 
3.92897672 -0.00000000 -0.68769946 
3.98682652 -0.00000000 -0.31930153 
3.99853341 -0.00000000 0.10811902 
3.96354999 -0.00000000 0.51555386 
3.88351204 -0.00000000 0.82768900 
3.76216206 -0.00000000 0.98682652 
3.60517422 -0.00000000 0.96354999 
3.41988910 -0.00000000 0.76216206 
3.21497044 -0.00000000 0.41988910 
3.00000000 -0.00000000 0.00000000