0.035148 0.064625 -0.045437
-0.074791 0.16376 0.0079908
0.065977 0.059025 0.020266
0.035177 0.058387 -0.042987
-0.025373 0.053425 0.01155
-0.066673 0.11487 0.0070625
0.033764 0.062788 -4.1097e-05
0.061427 0.13287 -0.023396
-0.095771 0.14897 0.019312
0.033545 0.062494 -0.00052554
0.032027 0.10586 -0.031788
0.018027 0.16077 -0.021288
-0.088373 0.15318 0.0066776
-0.072973 0.16292 0.0098625
-0.019073 0.085975 -0.032059
0.005777 0.09545 -0.0093875
0.036577 0.057975 -0.023841
0.036365 0.10593 0.019662
-0.043223 0.10942 -0.018385
-0.095373 0.15344 0.013713
-0.023293 0.13026 -0.021743
-0.03185 0.081425 0.015463
-0.051973 0.058832 -0.025837
-0.083136 0.15193 0.0063612
-0.024566 0.16053 -0.038088
0.041133 0.067757 -0.0012922
0.027477 0.092017 -0.0044875
-0.084217 0.081425 -0.014637
-0.038469 0.17558 -0.024438
-0.084523 0.16892 0.0085448
0.024954 0.10068 -0.028987
0.063371 0.069175 -0.0083375
-0.023273 0.17453 -0.041729
0.054077 0.1442 -0.026187
0.086977 0.13217 -0.0090101
-0.064573 0.14303 0.012034
0.057927 0.12799 -0.029337
-0.039023 0.053412 0.0046125
-0.093745 0.17278 0.0014625
-0.025495 0.057625 -0.037387
0.073677 0.057975 -0.0084488
-0.054423 0.077263 0.025962
0.026427 0.15247 -0.031759
0.031327 0.084902 0.0053125
-0.044273 0.14092 -0.0016471
-0.089423 0.17645 -0.0034375
0.087327 0.13498 -0.0080997
-0.019423 0.11123 -0.0044875
-0.079623 0.15912 -0.012124
-0.045673 0.16193 -0.034039
0.075427 0.12682 -0.019887
0.036264 0.12308 -0.0048375
-0.096893 0.17242 -0.0016875
0.034744 0.064653 0.020761
0.035039 0.082825 0.028063
-0.060373 0.071625 -0.032831
-0.020123 0.05519 6.2503e-05
0.050927 0.054125 -0.0027965
-0.066362 0.15319 -0.0093872
0.024677 0.12473 -0.016037
-0.077873 0.060197 -0.0090375
-0.073931 0.11678 0.00041251
0.008577 0.064422 0.024213
0.044674 0.077925 -0.032837
-0.014173 0.056501 0.0095125
-0.03626 0.12552 -0.0034375
0.07926 0.086325 0.018613
-0.0033856 0.13253 -0.032137
-0.061245 0.17802 -0.019887
-0.077827 0.059025 -0.035287
-0.022137 0.10977 -0.0076375
-0.056873 0.15177 0.0068811
-0.052034 0.091925 -0.020237
-0.060373 0.061825 -0.023619
-0.078223 0.060775 -0.017732
-0.092161 0.16332 -0.010438
0.041827 0.056225 0.0049625
0.046935 0.085975 -0.0072875
0.007287 0.096825 -0.014287
0.056877 0.080199 0.017913
0.04553 0.082825 0.024913
-0.002273 0.083472 -0.0016875
-0.048123 0.14968 -0.030347
-0.070873 0.17592 -0.0024262
-0.079973 0.1063 -0.014287
-0.055823 0.07564 0.035412
0.029227 0.16231 -0.020237
-0.044973 0.12483 0.0021841
-0.084433 0.16113 -0.0063548
-0.028523 0.058089 -0.025487
-0.059673 0.12657 0.0014512
-0.034123 0.14863 -0.035903
-0.008573 0.076515 -0.026187
-0.046373 0.071275 -0.03605
-0.037273 0.06188 0.016162
0.056177 0.05446 0.012663
-0.010673 0.18852 -0.031288
0.015227 0.061643 -0.012538
-0.067535 0.091925 -0.030738
0.055477 0.05286 -0.0041375
-0.046897 0.059725 0.022812
-0.037273 0.18713 -0.022097
-0.054423 0.076265 0.034362
-0.041823 0.10873 -0.01664
-0.055852 0.060075 -0.024438
-0.10152 0.14758 6.2503e-05
0.010327 0.057975 0.026497
-0.007523 0.12587 -0.0023037
-0.033471 0.14785 -0.034542
0.067765 0.13778 -0.014988
-0.035523 0.13112 -0.027907
-0.014523 0.065348 -0.023037
-0.072973 0.067457 -0.035287
0.041378 0.070225 0.017563
-0.013579 0.057625 0.0091625
-0.06495 0.12693 -0.014988
0.025027 0.085698 0.011962
0.037859 0.11683 0.0059858
0.004727 0.11013 -0.0022034
0.058627 0.10138 -0.013754
0.046777 0.054825 -0.015688
0.041524 0.073725 -0.032837
-0.083473 0.16262 -0.017191
0.089777 0.14793 -0.0055375
-0.073673 0.16892 -0.010382
-0.049173 0.13533 -0.0011114
0.009977 0.14828 -0.0072875
-0.068773 0.14968 0.010391
-0.050573 0.16159 -0.032488
0.057927 0.10802 -0.0099916
0.044977 0.10344 -0.0034375
-0.027123 0.15948 -0.026533
0.064577 0.054339 -0.0023875
0.034827 0.06428 -0.035287
-0.013473 0.12133 -0.0044219
0.038738 0.092218 0.012569
0.072977 0.14652 -0.0080605
-0.016447 0.15177 -0.011137
-0.079273 0.069063 -0.028637
-0.082773 0.062175 -0.038763
0.019492 0.062004 0.0062842
-0.053723 0.14477 0.0090152
-0.036084 0.18748 -0.019887
-0.069473 0.089509 -0.031088
-0.087323 0.16576 -0.014988
-0.084216 0.15116 0.011972
-0.031754 0.082125 0.012663
-0.057573 0.12889 6.2503e-05
-0.029573 0.069175 0.023863
-0.093623 0.14372 0.021724
-0.051623 0.16332 -0.031491
-0.065273 0.054125 -0.00066844
-0.054773 0.15948 -0.0090976
-0.054422 0.083525 -0.034237
0.02353 0.063575 0.017212
0.069127 0.10243 -0.0082394
-0.037143 0.090875 0.0074125
-0.053023 0.067775 -0.034867
-0.065273 0.17456 -0.021638
-0.022563 0.10103 -0.0006375
0.031394 0.064625 -0.029687
-0.050573 0.13498 -0.0015123
-0.073323 0.14031 -0.014287
0.023839 0.06081 0.0073859
-0.088973 0.14958 -0.00085987
-0.019773 0.054825 -0.01439
-0.034823 0.19412 -0.019713
0.069827 0.13883 -0.017296
-0.037566 0.083875 0.019312
0.059677 0.10389 -0.010087
-0.084173 0.099975 -0.010974
0.027477 0.053409 -0.010087
-0.041436 0.077225 0.022113
-0.052323 0.057975 -0.023741
0.054675 0.078975 0.015813
0.039666 0.060775 -0.039837
-0.078923 0.16339 -0.017087
-0.078924 0.065325 0.0070625
-0.066673 0.057275 -0.017049
-0.042873 0.17872 -0.0027114
-0.018723 0.15632 -0.010751
0.039727 0.066298 -0.042287
0.051977 0.13078 -0.0033466
-0.023623 0.15702 -0.0031859
0.073736 0.067775 -0.0006375
0.046027 0.055875 -0.016992
-0.023529 0.14748 -0.0088622
-0.095652 0.15329 0.0022192
0.046027 0.10207 0.01602
-0.043573 0.1836 -0.035287
-0.065623 0.069525 -0.032433
0.063177 0.072679 -0.0006375
-0.082395 0.15173 0.0065121
-0.047277 0.058675 0.033313
0.044277 0.092628 -0.030388
-0.054423 0.18054 -0.015688
0.018727 0.082169 0.0007625
-0.047073 0.053673 -0.014637
0.032399 0.058741 0.014093
0.056379 0.15143 -0.019887
-0.086273 0.062175 -0.029795
-0.038665 0.15247 0.00041251
-0.040423 0.17558 -0.025477
0.007527 0.065493 0.014762
-0.061073 0.17478 0.0056625
-0.061741 0.13078 -0.012188
0.034827 0.059375 -0.050006
0.048988 0.077225 -0.028637
-0.001573 0.15254 -0.020938
-0.062123 0.059724 0.015112
-0.091161 0.15036 -0.0032648
0.029046 0.12273 -0.018138
-0.063873 0.12237 -0.02058
-0.086134 0.087375 -0.011137
-0.080673 0.14233 0.017503
0.028615 0.071275 0.020012
-0.030638 0.13148 -0.0076375
-0.082773 0.066375 -0.0020148
0.042551 0.058406 0.0035533
-0.044973 0.059375 -0.039254
-0.023973 0.10273 -0.0041375
-0.057573 0.077575 -0.036188
-0.081373 0.067075 -0.011867
-0.095373 0.16578 -0.0099752
0.033427 0.070565 -0.039488
-0.063873 0.065325 -0.03426
-0.010131 0.058675 0.020012
0.079977 0.14442 -0.0065268
-0.027103 0.11326 -0.015319
-0.061697 0.1601 -0.0163
-0.039373 0.13533 -0.028978
-0.046023 0.080375 -0.028861
0.028287 0.12377 -0.016387
-0.062804 0.15975 -0.01696
-0.018023 0.057975 0.0083637
0.092877 0.14758 -0.0086875
0.060378 0.12623 -0.0097375
0.033474 0.12623 -0.030038
0.040432 0.074763 0.01635
-0.057192 0.053775 0.0007625
0.039377 0.053444 0.012313
0.04319 0.070578 -0.0011579
-0.057573 0.074756 0.030863
0.042964 0.083175 0.028762
-0.037973 0.19412 -0.022467
-0.028523 0.14676 -0.0020375
0.04529 0.055875 0.0042625
-0.017323 0.11958 -0.0079913
0.0042066 0.057275 0.013362
0.029227 0.12551 -0.025837
-0.018244 0.069875 -0.030388
0.033098 0.062175 -0.046837
-0.020123 0.18643 -0.028723
0.003677 0.14436 -0.0062375
0.076827 0.098225 -0.0076369
0.071577 0.14303 -0.014566
-0.003673 0.14933 -0.018952
0.024364 0.066725 -0.046488
-0.061423 0.16353 0.010563
-0.063173 0.12727 -0.001524
-0.083418 0.070575 -0.010438
-0.086179 0.061125 -0.022337
-0.010672 0.075825 0.0098625
-0.066673 0.14758 0.011055
-0.073673 0.093675 0.013317
0.023277 0.15463 -0.0097375
-0.023973 0.056925 0.025714
0.028084 0.067465 0.0127
0.041477 0.087025 -0.033729
-0.078073 0.067425 -0.022687
-0.027123 0.081075 0.010622
0.05977 0.10172 -0.012887
0.07656 0.14652 -0.0097375
0.035177 0.091575 0.022782
-0.030973 0.069525 0.024711
-0.053023 0.05361 0.0070625
0.079627 0.094025 -0.0043667
0.078658 0.086675 0.018963
0.066327 0.0538 -0.0079875
0.058977 0.12377 -0.027663
0.047777 0.090624 -0.017788
-0.019773 0.11993 -0.019617
-0.026423 0.053381 -0.0048375
0.040077 0.10522 -0.03448
0.039377 0.13603 -0.034466
-0.054073 0.14303 -0.0278
0.070177 0.063575 0.022203
0.045364 0.054125 0.010563
0.081612 0.083525 0.0028625
0.032617 0.079325 0.025612
-0.018023 0.057137 0.0081125
-0.042523 0.062525 0.03289
-0.029223 0.089523 -0.028637
0.056527 0.074425 0.023579
-0.081762 0.064275 -0.0062375
0.043227 0.11398 -0.034066
-0.074133 0.16367 -0.018838
0.040975 0.075988 0.016799
-0.067023 0.16262 0.011772
0.031213 0.059375 -0.047188
-0.028873 0.15737 -0.0015388
0.021877 0.066375 0.0098095
-0.036636 0.089825 -0.022337
-0.030973 0.17172 -0.034826
-0.037973 0.19517 -0.021768
-0.046373 0.18046 -0.032137
0.022432 0.096125 -0.0086875
-0.018373 0.1218 -0.012188
-0.043573 0.18374 -0.014637
0.041862 0.077036 0.015939
-0.077523 0.14757 -0.012188
-0.069473 0.11152 -0.020584
-0.049523 0.055812 -0.035638
0.023977 0.0574 -0.023738
-0.050573 0.10977 -0.022964
-0.027823 0.14868 -0.038437
-0.043923 0.16053 0.002004
0.030977 0.061846 -0.043338
-0.089073 0.17722 -0.0027375
-0.072973 0.14212 -0.012887
0.020127 0.16087 -0.022578
-0.049873 0.13393 -0.0006375
-0.028336 0.10138 -0.018138
-0.029923 0.073259 -0.031788
-0.089773 0.16227 -0.0062375
-0.048123 0.083583 -0.027588
0.067377 0.094025 0.015495
-0.037973 0.15247 1.9699e-05
0.036081 0.096972 0.013319
-0.083449 0.092975 0.0067125
-0.029223 0.057096 0.010212
-0.068307 0.15318 -0.0017599
0.058977 0.083116 0.0028625
0.064227 0.091225 0.0012151
0.017285 0.11842 -0.018225
0.072277 0.096947 -0.0062375
0.025377 0.064625 0.015004
-0.047073 0.16717 -0.035321
-0.085923 0.14901 -0.0079875
-0.021173 0.15702 -0.011773
-0.090823 0.15107 0.017316
0.047777 0.11678 -0.0019206
0.037921 0.090875 0.030162
0.036927 0.14688 -0.0040543
0.031174 0.058136 0.01256
-0.046063 0.056789 -0.009329
-0.0021799 0.076525 -0.0055375
-0.065636 0.062525 -0.026537
-0.031673 0.18468 -0.0018482
-0.064923 0.071492 0.024563
0.079277 0.14233 -0.0065624
-0.072973 0.14199 -0.0090375
-0.017323 0.057275 0.0090298
-0.051973 0.17652 -0.032837
0.062127 0.053984 0.015813
0.032625 0.063225 -0.046137
0.058011 0.11467 -0.0072875
-0.10448 0.14617 0.0007625
-0.033742 0.055946 -0.0046981
0.068777 0.12587 -0.0090544
0.025072 0.10741 -0.018158
-0.095665 0.15112 -0.0028245
-0.057923 0.091925 0.01828
0.027477 0.083875 0.0008074
-0.064573 0.055779 0.022462
0.044277 0.084225 -0.032468
-0.044273 0.10408 -0.0072875
0.041781 0.089125 -0.031438
0.050111 0.076875 -0.0055375
-0.032373 0.094017 0.0014625
-0.050148 0.15843 -0.028987
-0.071923 0.14307 0.0077625
-0.082403 0.069875 -0.013237
-0.065623 0.064077 0.017212
-0.084173 0.060775 -0.019134
0.027128 0.076686 -0.034613
-0.020823 0.060425 -0.024085
0.044627 0.063026 -0.033188
0.0074906 0.063225 0.022812
-0.036573 0.061471 -0.040537
0.018384 0.077925 -0.031088
-0.027823 0.15118 -0.041587
-0.025723 0.13603 -0.024395
-0.025023 0.16071 -0.041938
0.037656 0.061503 -0.00095612
0.04975 0.076525 -0.0069375
-0.060023 0.098225 -0.022363
-0.085705 0.061825 -0.025487
0.052677 0.12062 -0.032848
-0.076823 0.14163 -0.015507
0.022226 0.064837 -0.043452
-0.088843 0.17767 -0.0030875
-0.061845 0.13043 -0.0090375
-0.050573 0.10138 -0.019181
-0.081373 0.101 0.0053125
-0.090465 0.15286 0.011913
-0.026073 0.16962 -0.021768
0.015577 0.15107 -0.0074199
-0.056377 0.16125 -0.01074
-0.023273 0.15259 -0.017087
-0.077173 0.14933 0.012254
0.043227 0.094034 0.029812
-0.090473 0.17674 -0.0020375
0.030627 0.12552 -0.026537
-0.04345 0.17767 -0.030738
0.068077 0.053624 -0.0037875
-0.069123 0.13953 -0.017946
0.045327 0.15843 -0.021535
-0.021173 0.16637 -0.0055375
0.020477 0.096499 -0.026537
-0.036923 0.14547 0.00052175
-0.061423 0.065675 -0.034989
-0.036223 0.17313 -0.03798
0.007177 0.15842 -0.020237
-0.078223 0.067023 -0.033537
0.046508 0.10243 0.017212
-0.019073 0.074075 0.012885
-0.030973 0.12531 -0.013588
-0.086623 0.065629 -0.027238
0.062127 0.11853 -0.011802
0.029577 0.053775 -0.012218
0.009627 0.058442 0.0042625
-0.036975 0.10997 -0.012957
0.046756 0.086325 0.022812
0.042177 0.069399 0.018613
0.075373 0.076525 0.022812
-0.055823 0.13708 -0.017003
0.030627 0.11816 -0.019887
0.040523 0.074318 0.015928
0.053027 0.099975 -0.024779
0.054427 0.11048 -0.030055
0.043657 0.14863 -0.0069375
0.035432 0.06757 0.017949
0.084877 0.14408 -0.013489
-0.055823 0.12097 -0.024237
-0.024233 0.088775 -0.033537
0.032441 0.083175 0.020712
-0.061773 0.17871 -0.0030875
-0.044623 0.10207 -0.014642
-0.017323 0.10696 6.2503e-05
-0.078135 0.14997 0.0086141
0.074377 0.11958 -0.01769
-0.040267 0.055327 0.001802
-0.084873 0.062525 -0.025028
0.072977 0.072315 0.023862
0.076426 0.11083 0.0028625
0.052327 0.14422 -0.027588
0.037229 0.074192 0.016699
-0.029837 0.15107 -0.0016875
-0.045323 0.088075 0.020105
-0.097512 0.17522 -0.0065875
-0.036223 0.17578 -0.0020375
-0.024673 0.053402 0.0011125
0.065653 0.087725 0.019662
-0.047073 0.17802 -0.028654
0.056527 0.097523 -0.012887
-0.041123 0.19155 -0.018838
0.042527 0.07871 0.0018125
0.036873 0.069713 0.016848
-0.040073 0.097175 -0.0084763
-0.065973 0.14933 0.0097947
-0.077873 0.10243 -0.018131
-0.016273 0.16018 -0.005593
0.059901 0.10312 -0.013938
0.046377 0.10207 0.016685
-0.008573 0.071297 0.0007625
0.038664 0.10177 0.011634
-0.025385 0.088425 -0.031438
-0.055172 0.13567 -0.020588
0.082249 0.10103 0.0070625
-0.031129 0.12903 -0.024088
-0.027813 0.17313 -0.037738
0.076827 0.10627 -0.011167
0.072277 0.087725 0.020781
-0.072273 0.16087 -0.021639
0.047495 0.14163 -0.0044875
-0.036923 0.054665 -0.015688
0.039027 0.070308 -0.038788
0.082777 0.14818 -0.0079875
-0.009623 0.072325 0.011466
-0.071223 0.10068 -0.021837
0.018929 0.071994 -0.035927
0.060376 0.11292 -0.022337
-0.032023 0.15912 -0.00056881
0.050577 0.15318 -0.01793
-0.046723 0.13603 -0.00060092
-0.036223 0.057275 -0.041331
-0.088236 0.15241 0.0032931
-0.056234 0.14421 -0.014059
-0.028523 0.15423 -0.037765
-0.032933 0.10159 -0.013219
-0.033423 0.093142 0.0032125
0.071577 0.062415 0.019662
0.037277 0.088775 0.030399
0.039365 0.095075 0.030162
-0.062823 0.089125 0.016661
0.040331 0.081048 0.014136
0.041233 0.11572 0.0095125
0.031677 0.13182 -0.0054421
-0.034896 0.11922 -0.012188
-0.048691 0.14688 -0.030388
-0.032373 0.16892 -0.00078056
0.006477 0.057441 0.014412
0.041477 0.1595 -0.020938
-0.064573 0.16648 0.012163
-0.028206 0.053775 -0.033888
0.077024 0.12308 -0.014637
-0.069123 0.15712 -0.021288
-0.016973 0.18363 -0.028736
-0.008223 0.12448 -0.0017855
-0.067544 0.14022 -0.018488
0.070493 0.077225 0.023862
0.03413 0.12343 -0.0079875
0.043105 0.061985 0.0051438
-0.029573 0.17172 -0.041719
0.074377 0.088775 -0.0027876
0.036577 0.12623 -0.0042611
0.027827 0.057275 0.0098823
-0.098173 0.17488 -0.00063824
0.077983 0.069175 0.015463
0.038677 0.066025 0.017507
-0.053421 0.15388 -0.028637
-0.033773 0.17092 -0.025837
-0.080323 0.098225 0.0086287
0.019134 0.072749 -0.035129
0.018377 0.12237 -0.013952
-0.058623 0.17859 -0.019537
0.076827 0.068825 0.0042696
-0.050639 0.083175 -0.031788
-0.064573 0.15143 0.0087325
-0.051973 0.14652 0.0078307
0.051977 0.1053 -0.0062375
0.031251 0.11922 -0.021988
-0.060023 0.061125 -0.033987
-0.050546 0.15948 -0.0022117
0.023277 0.070357 -0.039137
-0.021173 0.090414 -0.034588
-0.031673 0.077575 -0.030167
0.065569 0.12202 -0.010438
-0.044973 0.13462 0.00011163
-0.019163 0.073725 0.013713
-0.075021 0.11853 -0.0079875
-0.049873 0.066725 -0.035931
7.7635e-05 0.081775 -0.018488
-0.054423 0.17874 -0.0013375
-0.048473 0.096475 0.0083605
0.047202 0.080375 -0.019887
0.063382 0.10592 -0.0080482
-0.081023 0.086675 0.010904
-0.064573 0.17912 -0.0034375
-0.088373 0.17341 -0.0062375
-0.033073 0.18539 -0.017788
0.05272 0.092975 -0.012538
-0.014873 0.056925 0.009028
-0.072273 0.059656 -0.016737
-0.086895 0.086675 -0.0097375
-0.017206 0.12759 -0.015564
-0.035523 0.16123 0.00042066
-0.042928 0.095775 -0.0044875
-0.046723 0.10511 -0.0006375
0.026769 0.10312 -0.0083375
-0.027835 0.053075 -0.013237
0.076477 0.10103 -0.009216
-0.020823 0.083525 -0.034446
-0.006123 0.069175 -0.012717
0.032377 0.056925 0.025574
0.018151 0.068125 0.0081125
0.044534 0.058551 0.0042163
-0.087288 0.17802 0.0067125
0.034827 0.052999 0.0063625
-0.075764 0.092975 0.012663
-0.083111 0.17872 0.0070625
-0.040423 0.074425 0.027851
0.037277 0.12273 -0.031514
-0.029223 0.12867 -0.013588
0.074377 0.12343 -0.0083654
-0.008923 0.070251 -0.021638
-0.050573 0.057625 -0.03704
0.035877 0.057625 0.026375
0.075102 0.11048 0.0039125
-0.019997 0.18468 -0.028987
-0.047423 0.17831 -0.028987
-0.081373 0.065993 0.0025125
-0.067723 0.15957 -0.014637
-0.029779 0.16648 -0.033888
-0.076823 0.061124 -0.012538
-0.016273 0.1883 -0.029337
-0.071258 0.059725 0.0095125
0.074719 0.087725 0.020362
0.031327 0.070161 -0.045788
0.073677 0.068362 -0.0006375
-0.092923 0.14197 0.00056301
-0.030973 0.12693 -0.02208
0.038537 0.092034 0.012528
-0.03459 0.19482 -0.019887
-0.026073 0.070723 -0.038788
0.035877 0.065675 -0.032538
-0.066673 0.16962 0.0088391
-0.032023 0.093675 0.0025559
-0.10412 0.15807 0.0079514
0.007877 0.13323 -0.0020692
-0.082073 0.16404 0.011262
-0.047773 0.064975 -0.037434
0.003677 0.08779 -0.012887
-0.064223 0.17488 -0.022479
0.010327 0.15107 -0.0093037
-0.0811 0.16717 0.015463
0.008927 0.15939 -0.020588
0.008927 0.11993 -0.0034339
-0.042173 0.062175 -0.038877
0.018027 0.090175 -0.02831
0.077527 0.10103 0.011722
0.047427 0.09208 -0.025487
-0.07789 0.15126 0.011444
0.046377 0.078792 -0.017087
-0.00017299 0.098225 6.5126e-05
-0.040128 0.069175 -0.035287
-0.012773 0.067815 0.0046125
0.056177 0.13742 -0.0080199
-0.056873 0.078975 0.021589
0.009277 0.10253 -0.019887
0.066633 0.063225 -0.014637
-0.084738 0.060775 -0.031088
0.031796 0.057975 0.024913
0.073334 0.14793 -0.011487
0.040427 0.093675 -0.033437
-0.0068216 0.095775 0.0032125
-0.055473 0.14508 -0.0076375
-0.017679 0.13206 -0.017809
-0.010673 0.079325 0.0058023
-0.028194 0.055175 0.012313
-0.026783 0.12798 -0.021988
-0.069473 0.14275 -0.0062375
0.069477 0.062525 -0.011476
-0.029666 0.16193 -0.028288
0.011027 0.14022 -0.003132
0.040388 0.10593 0.021063
-0.052323 0.17227 -0.031788
0.081026 0.080725 0.017212
-0.018287 0.16473 -0.0055375
-0.013123 0.16157 -0.011892
-0.028348 0.15527 -0.028637
-0.020375 0.13911 -0.022388
-0.092573 0.16895 -0.010788
-0.042379 0.11152 -0.0062375
-0.0092662 0.066375 -0.016037
0.034846 0.11572 0.0075019
0.007877 0.058114 0.015813
0.017255 0.062285 0.0045626
0.009977 0.10627 -0.013204
0.036597 0.061064 -0.002676
-0.093135 0.1681 -0.0014086
-0.048123 0.15282 -0.030729
-0.034548 0.057187 -0.0080494
-0.064898 0.14197 -0.018838
-0.093089 0.15037 -0.0039569
0.032727 0.083152 0.021763
-0.06186 0.1544 -0.011911
0.036927 0.071006 -0.037738
0.048127 0.072675 0.020202
0.0075146 0.060394 0.019804
0.044977 0.15352 -0.016272
-0.032373 0.12483 -0.021828
0.077527 0.10489 0.0084625
0.029577 0.10731 -0.0072875
0.020527 0.13217 -0.0048375
-0.062115 0.14547 0.0011125
-0.048123 0.16193 -0.032896
-0.069473 0.16683 0.014516
0.051277 0.073375 0.021492
0.004377 0.14092 -0.032767
0.028877 0.05627 0.013012
-0.018723 0.071975 0.018231
-0.024673 0.15072 -0.042029
0.042857 0.061063 -0.0062426
0.043512 0.071958 -0.0010448
0.067377 0.13501 -0.014287
-0.046086 0.055624 -0.00067499
-0.011373 0.083668 0.0067125
0.0050684 0.10593 -0.0041375
0.043227 0.13148 -0.0017752
0.012058 0.11013 -0.020588
-0.078573 0.15143 0.0123
0.0068576 0.15072 -0.011838
0.042177 0.12832 -0.0017305
0.034202 0.090673 0.011948
-0.088023 0.058291 -0.020938
0.068777 0.10942 -0.013507
-0.020473 0.10977 -0.0052985
0.061427 0.11503 -0.011063
0.047077 0.10348 -0.032837
0.029577 0.085705 0.0053125
-0.075773 0.064275 -0.037842
0.059607 0.10068 -0.011487
0.038327 0.061654 -0.037038
-0.045673 0.059025 0.026927
-0.095723 0.17313 -0.0072326
0.048127 0.074329 0.018263
0.0086861 0.10068 -0.014287
0.034029 0.098653 0.015919
-0.021173 0.15352 -0.022003
-0.008573 0.065325 0.018183
0.038955 0.059375 0.016862
-0.044973 0.1813 -0.013588
-0.033656 0.14338 -0.0020375
0.0007159 0.087025 -0.0044875
0.0080403 0.058675 0.016862
-0.019423 0.062175 -0.024411
0.032485 0.062525 -0.046137
0.038677 0.11223 0.015412
-0.056872 0.15614 -0.023172
-0.071198 0.074075 -0.022337
-0.056873 0.16123 -0.0014364
-0.061075 0.14441 -0.0193
-0.083133 0.16447 0.011387
0.060123 0.083875 0.015813
0.02158 0.061825 0.022113
0.067385 0.13567 -0.013938
-0.061773 0.11152 0.0091894
0.049527 0.14688 -0.028609
-0.054423 0.14558 -0.0020375
0.042948 0.058096 0.0022099
-0.004723 0.12343 -0.033287
0.061777 0.069921 -0.0062375
-0.048383 0.093325 0.016162
-0.051273 0.055139 -0.021288
0.002277 0.15107 -0.023074
-0.069823 0.14644 0.012313
-0.072973 0.17453 -0.0084406
-0.053324 0.15457 -0.028637
-0.034123 0.054269 -0.023037
0.072498 0.081075 -0.0002875
-0.10027 0.13966 -0.0048375
-0.063873 0.14142 -0.019887
-0.083536 0.10243 -0.0020375
-0.008573 0.076359 0.0032125
0.0081632 0.15912 -0.020588
-0.083123 0.10032 -0.012561
0.030308 0.12237 -0.015688
0.021177 0.08309 0.0081125
-0.020823 0.099975 -0.030022
-0.03208 0.056925 0.017563
0.017677 0.095775 -0.019912
0.076477 0.13637 -0.0080582
-0.10342 0.15562 0.0081125
0.070877 0.081775 0.00059219
-0.046023 0.080635 -0.028637
-0.048825 0.14548 0.0016563
0.022927 0.066135 -0.030038
-0.025373 0.067261 0.022113
0.072977 0.062188 0.016162
-0.018023 0.15834 -0.0072875
-0.083473 0.15128 0.0007625
0.039727 0.10199 0.027012
0.020827 0.09249 -0.030388
-0.088023 0.17847 0.0056625
-0.073294 0.063575 0.011612
0.035877 0.082945 0.0081125
-0.040423 0.12202 -0.025839
-0.014858 0.057975 -0.011487
-0.037273 0.057625 -0.041151
0.043927 0.055525 -0.017788
0.016973 0.080725 -0.029687
0.060727 0.11467 -0.010717
-0.092223 0.17453 -0.0045016
0.034166 0.11135 0.0086643
-0.015179 0.1277 -0.012296
0.081076 0.10243 -0.0062375
-0.020153 0.065675 0.020012
0.016977 0.063577 0.017212
0.033987 0.055966 -0.0056939
0.045433 0.093772 0.01723
-0.058623 0.062525 -0.035539
-0.023273 0.074226 0.010212
-0.023623 0.14022 -0.017767
0.055477 0.14477 -0.023721
0.018377 0.064346 0.011262
-0.032767 0.17417 -0.016737
0.001577 0.095031 -0.027588
-0.080673 0.059025 -0.038475
0.037353 0.10103 0.023162
-0.093623 0.16997 0.00054105
0.023277 0.063873 0.014063
-0.012073 0.064383 0.021413
-0.040073 0.16717 0.0006073
0.047641 0.095383 0.018709
-0.035173 0.18573 -0.022133
-0.089463 0.17383 0.015813
0.030277 0.080725 0.019189
-0.069237 0.17558 -0.019537
0.039198 0.092975 -0.033888
0.081027 0.077415 0.0070625
0.031321 0.10172 -0.033188
-0.089073 0.17976 0.0039125
-0.009973 0.17465 -0.010788
0.018269 0.081775 -0.0006375
-0.077523 0.069175 -0.027501
0.015561 0.075286 -0.0064255
-0.051735 0.15705 -0.001695
-0.033773 0.16787 -0.04124
0.051711 0.092625 -0.0093875
-0.035523 0.060425 0.016138
-0.085315 0.066025 -0.031088
-0.086216 0.084225 -0.010788
-0.006823 0.12021 -0.0002875
-0.082423 0.059505 -0.019537
-0.06375 0.054825 0.022812
0.077877 0.07344 0.0018125
-0.021173 0.15247 -0.025079
-0.074661 0.11887 -0.0051875
0.040164 0.074137 0.015266
-0.067433 0.16296 -0.005366
-0.081723 0.17825 0.0056625
0.037977 0.061125 0.016794
-0.03866 0.059725 0.012663
0.0050958 0.10627 -0.030038
0.054427 0.066607 -0.025837
0.054777 0.059002 -0.028288
-0.031323 0.069875 -0.038535
-0.026073 0.17522 -0.043134
0.038802 0.062957 -0.0031427
-0.088373 0.14059 -0.0027375
-0.045714 0.065325 0.019312
0.029927 0.053168 0.0046125
-0.084523 0.060075 -0.019241
-0.073673 0.1734 -0.0083375
-0.074723 0.068534 -0.021638
-0.049523 0.16928 0.0041658
0.021177 0.12835 -0.031088
-0.098173 0.14448 0.0053125
-0.049523 0.09567 0.010212
0.082314 0.10278 0.0053125
-0.040073 0.19115 -0.017438
0.054427 0.12798 -0.00405
-0.062123 0.18064 -0.0097375
0.023627 0.15066 -0.033188
0.082416 0.093675 0.011612
-0.057923 0.161 0.0011125
-0.062107 0.14141 -0.02119
-0.021523 0.054125 0.02531
-0.026423 0.059334 -0.026187
-0.068425 0.16753 -0.019537
-0.080323 0.065672 -0.012538
-0.021398 0.18085 -0.023157
-0.060938 0.094025 -0.025487
0.014948 0.070575 0.0025125
-0.060373 0.093184 -0.026537
-0.015573 0.17172 -0.0071299
-0.025723 0.10487 -0.019775
0.014527 0.081075 -0.0097432
0.046027 0.057975 0.019992
-0.054773 0.11887 -0.024425
0.032727 0.059725 -0.048946
0.043894 0.071975 0.017913
-0.060723 0.16151 0.0007625
0.035177 0.15213 -0.0073491
-0.091259 0.16403 -0.0069375
-0.043923 0.053775 -0.031831
-0.060023 0.073375 0.040062
-0.063042 0.16033 -0.016113
0.040576 0.078659 0.011292
0.070644 0.055525 -0.013588
0.029927 0.062205 -0.043338
0.043062 0.061562 -0.0056789
-0.014173 0.17406 -0.0076375
-0.019773 0.11503 -0.022472
0.027827 0.067775 -0.035995
-0.062823 0.058675 0.012567
-0.050223 0.056112 -0.035638
-0.024323 0.13637 -0.018615
-0.076726 0.1489 0.0081677
-0.026773 0.060075 0.025863
-0.024552 0.15457 -0.0037875
-0.066323 0.11432 0.0074798
-0.070523 0.15107 0.0037479
0.056527 0.075091 -0.0006375
0.053027 0.079196 6.2503e-05
0.048127 0.058675 0.021392
-0.055123 0.14522 -0.0062375
-0.073673 0.16973 -0.013588
0.070527 0.074075 0.00040339
-0.091453 0.16332 -0.011137
-0.039023 0.17351 -0.030038
-0.058273 0.14445 -0.011137
0.066327 0.1161 -0.0055375
0.073327 0.1087 -0.013588
-0.026773 0.16538 -0.013588
-0.086342 0.15247 0.0054517
-0.016273 0.17137 -0.0069456
0.015577 0.080025 -0.0083929
-0.063173 0.069175 -0.032869
0.036456 0.055525 -0.021988
-0.077173 0.16806 -0.010788
0.064585 0.098978 -0.0015674
-0.096073 0.17767 0.0022601
-0.059673 0.07451 0.035063
-0.047073 0.061061 0.020712
0.026914 0.15072 -0.032837
0.009302 0.056925 0.023162
-0.060373 0.16157 -0.0282
-0.031673 0.062175 0.025382
0.061427 0.071031 -0.0030875
-0.027473 0.13043 -0.022692
-0.029436 0.16648 -0.034237
-0.071573 0.17137 -0.019865
-0.023973 0.074425 0.01053
-0.044623 0.17663 -0.034228
-0.019073 0.055808 -0.016037
-0.048473 0.14513 -0.030109
-0.017323 0.18316 -0.028288
0.032027 0.091225 -0.034833
0.072277 0.11279 0.0021625
0.030977 0.13357 -0.033361
0.001927 0.13498 -0.0025627
-0.047747 0.056575 -0.026888
0.072944 0.081075 -0.0006375
0.031677 0.11393 -0.0079875
-0.066869 0.11818 -0.020237
-0.10027 0.15439 0.011612
-0.080323 0.074434 0.010913
-0.091873 0.14226 0.021063
0.030644 0.056575 -0.049638
-0.03408 0.14722 -0.0013375
-0.023273 0.16193 -0.043903
0.030277 0.13148 -0.03204
-0.040581 0.14408 -0.031788
0.010888 0.10802 -0.015338
0.012337 0.11152 -0.022687
-0.01826 0.1306 -0.017104
-0.025723 0.16955 -0.022337
-0.088462 0.16683 -0.014287
0.085227 0.14553 -0.012188
-0.096423 0.14267 -0.0014223
0.034137 0.1108 0.0084522
0.028527 0.053869 -0.020938
0.037632 0.092831 0.012641
-0.014523 0.094557 0.0049625
-0.085713 0.16612 0.011262
-0.056173 0.14691 -0.026537
-0.056173 0.068125 -0.034295
-0.086607 0.14896 -0.0030378
0.06705 0.10627 0.0021625
0.054777 0.12849 -0.031438
0.008577 0.11782 -0.032739
0.037188 0.088729 -0.0031165
0.042527 0.053425 0.010339
-0.044623 0.091925 0.010507
-0.051273 0.082823 -0.032837
-0.082416 0.10032 0.0042625
0.030277 0.075125 0.017446
-0.083473 0.13987 -0.010521
-0.040073 0.17859 -0.034237
-0.064269 0.15002 -0.022687
0.036912 0.12358 0.0046279
0.044977 0.071275 -0.036844
0.074955 0.10593 -0.011838
0.080776 0.10942 -0.0058875
0.035177 0.059025 0.022817
-0.022223 0.059725 -0.024461
-0.014173 0.11345 -0.031088
-0.008223 0.12237 -0.0012544
-0.005073 0.19352 -0.031788
0.036577 0.081425 0.029761
-0.00017299 0.15022 -0.022337
-0.038323 0.094047 -0.0027375
-0.061423 0.16623 0.010563
-0.069788 0.14722 0.011612
-0.073323 0.17242 -0.008983
-0.052323 0.15038 0.0063213
-0.093623 0.15038 0.018424
0.080677 0.086325 0.017084
0.043927 0.060962 -0.024088
0.048127 0.10103 -0.0055887
-0.087878 0.17838 0.0081125
0.052677 0.070927 -0.025487
-0.099982 0.15457 0.0053125
-0.079623 0.16859 -0.0093875
0.043577 0.09974 -0.0037875
-0.021934 0.13363 -0.02153
-0.006123 0.098925 -0.033396
-0.067373 0.13925 -0.019537
0.043269 0.081191 0.018883
0.050927 0.091925 -0.0095068
-0.045038 0.18152 -0.021288
0.01739 0.067075 0.0067125
0.017183 0.075125 0.0074125
-0.027123 0.16737 -0.039837
0.024677 0.080725 0.015158
-0.10132 0.1541 0.0091625
0.025027 0.15787 -0.018138
-0.09033 0.17977 6.2503e-05
-0.074731 0.10558 -0.019537
-0.014873 0.070394 0.020362
-0.036222 0.18957 -0.020588
-0.086973 0.059144 -0.027238
-0.022573 0.092625 0.0052395
0.015227 0.080725 -0.0090504
-0.039723 0.13323 -0.00081956
0.033777 0.068825 0.024658
-0.042173 0.05333 -0.018488
