3.00000000 0.00000000 0.00000000 
3.32469947 0.00000000 0.61421271 
3.61421271 0.00000000 0.96940027 
3.83716648 0.00000000 0.91577333 
3.96940027 0.00000000 0.47594739 
3.99658449 0.00000000 -0.16459459 
3.91577333 0.00000000 -0.73572391 
3.73572391 0.00000000 -0.99658449 
3.47594739 0.00000000 -0.83716648 
3.16459459 0.00000000 -0.32469947 
2.83540541 0.00000000 0.32469947 
2.52405261 0.00000000 0.83716648 
2.26427609 0.00000000 0.99658449 
2.08422667 0.00000000 0.73572391 
2.00341551 0.00000000 0.16459459 
2.03059973 0.00000000 -0.47594739 
2.16283352 0.00000000 -0.91577333 
2.38578729 0.00000000 -0.96940027 
2.67530053 0.00000000 -0.61421271 
3.00000000 0.00000000 -0.00000000 
2.83745173 0.97409841 0.00000000 
3.04475113 1.04526438 0.65927943 
3.25954879 1.11900451 1.05727500 
3.47589471 1.19327616 1.04107645 
3.66772845 1.25913277 0.62901413 
3.79280636 1.30207207 0.00168268 
3.80632756 1.30671390 -0.57495826 
3.67896614 1.26299067 -0.86189620 
3.41179845 1.17127189 -0.74741025 
3.04155295 1.04416645 -0.29317961 
2.63335050 0.90403037 0.29317961 
2.26310500 0.77692493 0.74741025 
1.99593731 0.68520614 0.86189620 
1.86857589 0.64148291 0.57495826 
1.88209709 0.64612475 -0.00168268 
2.00717500 0.68906405 -0.62901413 
2.19900874 0.75492065 -1.04107645 
2.41535466 0.82919230 -1.05727500 
2.63015232 0.90293243 -0.65927943 
2.83745173 0.97409841 -0.00000000 
2.36742153 1.84263814 0.00000000 
2.45238972 1.90877154 0.68636272 
2.57746644 2.00612266 1.11631003 
2.75761630 2.14633892 1.13798171 
2.96901145 2.31087437 0.76492300 
3.15342960 2.45441278 0.16791405 
3.23945601 2.52136982 -0.39850925 
3.17191146 2.46879779 -0.70369763 
2.93717053 2.28609159 -0.63726662 
2.57347097 2.00301285 -0.25366258 
2.16137209 1.68226342 0.25366258 
1.79767253 1.39918469 0.63726662 
1.56293159 1.21647849 0.70369763 
1.49538704 1.16390646 0.39850925 
1.58141345 1.23086350 -0.16791405 
1.76583161 1.37440191 -0.76492300 
1.97722676 1.53893736 -1.13798171 
2.15737661 1.67915362 -1.11631003 
2.28245334 1.77650474 -0.68636272 
2.36742153 1.84263814 -0.00000000 
1.64084447 2.51149943 0.00000000 
1.63714258 2.50583326 0.69472382 
1.68394422 2.57746851 1.14489503 
1.80515099 2.76298928 1.20384581 
1.98325380 3.03559593 0.87996677 
2.16307510 3.31083291 0.32956517 
2.27287834 3.47889928 -0.21118994 
2.25417664 3.45027420 -0.52630403 
2.08771777 3.19548993 -0.50974002 
1.80454414 2.76206042 -0.20722629 
1.47714481 2.26093845 0.20722629 
1.19397118 1.82750894 0.50974002 
1.02751231 1.57272467 0.52630403 
1.00881061 1.54409959 0.21118994 
1.11861385 1.71216596 -0.32956517 
1.29843515 1.98740294 -0.87996677 
1.47653796 2.26000959 -1.20384581 
1.59774472 2.44553036 -1.14489503 
1.64454637 2.51716561 -0.69472382 
1.64084447 2.51149943 -0.00000000 
0.73645646 2.90820080 0.00000000 
0.70674689 2.79088034 0.68413467 
0.70927684 2.80087090 1.14225028 
0.76055390 3.00335942 1.23687212 
0.85248765 3.36639761 0.97100734 
0.95433497 3.76858355 0.48222661 
1.02479508 4.04682424 -0.01810992 
1.02924808 4.06440877 -0.33455422 
0.95488642 3.77076119 -0.36830904 
0.81730043 3.22744641 -0.15513741 
0.65561249 2.58895519 0.15513741 
0.51802650 2.04564040 0.36830904 
0.44366484 1.75199283 0.33455422 
0.44811785 1.76957736 0.01810992 
0.51857796 2.04781804 -0.48222661 
0.62042527 2.45000399 -0.97100734 
0.71235903 2.81304218 -1.23687212 
0.76363608 3.01553070 -1.14225028 
0.76616604 3.02552126 -0.68413467 
0.73645646 2.90820080 -0.00000000 
-0.24773804 2.98975348 0.00000000 
-0.22858144 2.75856779 0.65488411 
-0.22319413 2.69355262 1.10844791 
-0.23892196 2.88335921 1.23615979 
-0.27303961 3.29509806 1.03556135 
-0.31347652 3.78309900 0.62173416 
-0.34365610 4.14731235 0.17546409 
-0.34943477 4.21705056 -0.13367864 
-0.32522007 3.92482259 -0.21683155 
-0.27667104 3.33892285 -0.09881679 
-0.21880504 2.64058411 0.09881679 
-0.17025600 2.05468437 0.21683155 
-0.14604130 1.76245640 0.13367864 
-0.15181997 1.83219461 -0.17546409 
-0.18199955 2.19640796 -0.62173416 
-0.22243646 2.68440890 -1.03556135 
-0.25655412 3.09614775 -1.23615979 
-0.27228194 3.28595434 -1.10844791 
-0.26689463 3.22093917 -0.65488411 
-0.24773804 2.98975348 -0.00000000 
-1.20508627 2.74731998 0.00000000 
-1.06987378 2.43906654 0.60777002 
-1.01403716 2.31177187 1.04440998 
-1.08105555 2.46455842 1.20172825 
-1.25801547 2.86798638 1.07186796 
-1.47939328 3.37267697 0.74428242 
-1.65370130 3.77005923 0.36425189 
-1.70186701 3.87986598 0.07084334 
-1.59118236 3.62753041 -0.05943946 
-1.35044065 3.07869459 -0.03980070 
-1.05973189 2.41594537 0.03980070 
-0.81899018 1.86710955 0.05943946 
-0.70830554 1.61477398 -0.07084334 
-0.75647125 1.72458073 -0.36425189 
-0.93077926 2.12196299 -0.74428242 
-1.15215708 2.62665358 -1.07186796 
-1.32911699 3.03008154 -1.20172825 
-1.39613539 3.18286809 -1.04440998 
-1.34029877 3.05557342 -0.60777002 
-1.20508627 2.74731998 -0.00000000 
-2.03184471 2.20717173 0.00000000 
-1.73922567 1.88930271 0.54407755 
-1.59769065 1.73555470 0.95188327 
-1.69160904 1.83757726 1.13451669 
-2.00038074 2.17299274 1.07893680 
-2.40506395 2.61259590 0.84652860 
-2.73731359 2.97351521 0.54310386 
-2.85012441 3.09606043 0.27343290 
-2.68057252 2.91187798 0.09957398 
-2.27801490 2.47458384 0.02030104 
-1.78567453 1.93975963 -0.02030104 
-1.38311691 1.50246548 -0.09957398 
-1.21356502 1.31828303 -0.27343290 
-1.32637584 1.44082825 -0.54310386 
-1.65862548 1.80174756 -0.84652860 
-2.06330869 2.24135073 -1.07893680 
-2.37208039 2.57676620 -1.13451669 
-2.46599878 2.67878876 -0.95188327 
-2.32446376 2.52504075 -0.54407755 
-2.03184471 2.20717173 -0.00000000 
-2.63842125 1.42784218 0.00000000 
-2.18486876 1.18239184 0.46554406 
-1.94455466 1.05234036 0.83339166 
-2.03841024 1.10313246 1.03635847 
-2.44193817 1.32151085 1.05657505 
-2.99390900 1.62022253 0.92568369 
-3.46338524 1.87429036 0.70714136 
-3.64691276 1.97361049 0.46856392 
-3.45491376 1.86970583 0.25587131 
-2.95078336 1.59688410 0.07984903 
-2.32605915 1.25880026 -0.07984903 
-1.82192874 0.98597853 -0.25587131 
-1.62992975 0.88207387 -0.46856392 
-1.81345727 0.98139400 -0.70714136 
-2.28293351 1.23546183 -0.92568369 
-2.83490434 1.53417351 -1.05657505 
-3.23843227 1.75255190 -1.03635847 
-3.33228785 1.80334400 -0.83339166 
-3.09197375 1.67329251 -0.46554406 
-2.63842125 1.42784218 -0.00000000 
-2.95908391 0.49378377 0.00000000 
-2.38176526 0.39744633 0.37431174 
-2.05620035 0.34311915 0.69216730 
-2.12707549 0.35494612 0.90993109 
-2.57019188 0.42888917 1.00539270 
-3.20205401 0.53432831 0.97958854 
-3.75688746 0.62691364 0.85188990 
-3.99864584 0.66725598 0.65091375 
-3.82077956 0.63757534 0.40518913 
-3.29166775 0.54928220 0.13721895 
-2.62650007 0.43828534 -0.13721895 
-2.09738827 0.34999220 -0.40518913 
-1.91952198 0.32031157 -0.65091375 
-2.16128036 0.36065391 -0.85188990 
-2.71611381 0.45323923 -0.97958854 
-3.34797594 0.55867837 -1.00539270 
-3.79109233 0.63262142 -0.90993109 
-3.86196747 0.64444839 -0.69216730 
-3.53640256 0.59012121 -0.37431174 
-2.95908391 0.49378377 -0.00000000 
-2.95908391 -0.49378377 0.00000000 
-2.32886973 -0.38861962 0.27286917 
-1.95614132 -0.32642225 0.53206243 
-1.99069593 -0.33218840 0.75868317 
-2.41227062 -0.40253677 0.92678585 
-3.03970427 -0.50723693 1.00677277 
-3.60770236 -0.60201905 0.97340110 
-3.87879190 -0.64725589 0.81550834 
-3.74324480 -0.62463708 0.54345445 
-3.26485428 -0.54480782 0.19084589 
-2.65331354 -0.44275972 -0.19084589 
-2.17492302 -0.36293046 -0.54345445 
-2.03937592 -0.34031165 -0.81550834 
-2.31046546 -0.38554850 -0.97340110 
-2.87846355 -0.48033061 -1.00677277 
-3.50589720 -0.58503077 -0.92678585 
-3.92747189 -0.65537914 -0.75868317 
-3.96202650 -0.66114529 -0.53206243 
-3.58929810 -0.59894792 -0.27286917 
-2.95908391 -0.49378377 -0.00000000 
-2.63842125 -1.42784218 0.00000000 
-2.04466480 -1.10651726 0.16398344 
-1.67934002 -0.90881337 0.35744427 
-1.67692503 -0.90750644 0.58674035 
-2.02335493 -1.09498493 0.82289870 
-2.56358772 -1.38734430 1.00649486 
-3.06795790 -1.66029579 1.06836045 
-3.32923006 -1.80168921 0.95785798 
-3.24940154 -1.75848818 0.66689575 
-2.87971206 -1.55842223 0.23926705 
-2.39713045 -1.29726212 -0.23926705 
-2.02744096 -1.09719618 -0.66689575 
-1.94761245 -1.05399515 -0.95785798 
-2.20888461 -1.19538857 -1.06836045 
-2.71325479 -1.46834006 -1.00649486 
-3.25348758 -1.76069943 -0.82289870 
-3.59991748 -1.94817791 -0.58674035 
-3.59750249 -1.94687099 -0.35744427 
-3.23217771 -1.74916710 -0.16398344 
-2.63842125 -1.42784218 -0.00000000 
-2.03184471 -2.20717173 0.00000000 
-1.56254960 -1.69738134 0.05062468 
-1.26348412 -1.37250962 0.17307597 
-1.23608849 -1.34275004 0.39879278 
-1.47290890 -1.60000558 0.69656502 
-1.86280059 -2.02354086 0.97876239 
-2.23902134 -2.43222554 1.13417771 
-2.44980098 -2.66119326 1.07407976 
-2.42159916 -2.63055792 0.77214587 
-2.18845539 -2.37729628 0.28116163 
-1.87523404 -2.03704719 -0.28116163 
-1.64209027 -1.78378555 -0.77214587 
-1.61388845 -1.75315020 -1.07407976 
-1.82466809 -1.98211792 -1.13417771 
-2.20088884 -2.39080260 -0.97876239 
-2.59078053 -2.81433788 -0.69656502 
-2.82760094 -3.07159342 -0.39879278 
-2.80020531 -3.04183384 -0.17307597 
-2.50113983 -2.71696212 -0.05062468 
-2.03184471 -2.20717173 -0.00000000 
-1.20508627 -2.74731998 0.00000000 
-0.92719656 -2.11379525 -0.06411500 
-0.74414402 -1.69647749 -0.01601340 
-0.71319360 -1.62591763 0.19996718 
-0.83204825 -1.89687894 0.55123086 
-1.04148096 -2.37433743 0.92433184 
-1.25129846 -2.85267316 1.16905757 
-1.37858025 -3.14284641 1.16100345 
-1.38204482 -3.15074484 0.85633387 
-1.27811563 -2.91381014 0.31538685 
-1.13205692 -2.58082982 -0.31538685 
-1.02812773 -2.34389512 -0.85633387 
-1.03159230 -2.35179355 -1.16100345 
-1.15887408 -2.64196680 -1.16905757 
-1.36869159 -3.12030253 -0.92433184 
-1.57812430 -3.59776102 -0.55123086 
-1.69697895 -3.86872233 -0.19996718 
-1.66602853 -3.79816247 0.01601340 
-1.48297598 -3.38084471 0.06411500 
-1.20508627 -2.74731998 0.00000000 
-0.24773804 -2.98975348 0.00000000 
-0.19226091 -2.32024408 -0.17710579 
-0.15448895 -1.86440438 -0.20466596 
-0.14527740 -1.75323752 -0.00431300 
-0.16460353 -1.98646913 0.39086056 
-0.20199964 -2.43777310 0.84468792 
-0.24121867 -2.91107640 1.17204858 
-0.26713748 -3.22386991 1.21625798 
-0.27198110 -3.28232378 0.91716331 
-0.25825966 -3.11673058 0.34100914 
-0.23721641 -2.86277638 -0.34100914 
-0.22349497 -2.69718318 -0.91716331 
-0.22833860 -2.75563705 -1.21625798 
-0.25425741 -3.06843056 -1.17204858 
-0.29347643 -3.54173386 -0.84468792 
-0.33087255 -3.99303782 -0.39086056 
-0.35019867 -4.22626944 0.00431300 
-0.34098712 -4.11510257 0.20466596 
-0.30321517 -3.65926287 0.17710579 
-0.24773804 -2.98975348 0.00000000 
0.73645646 -2.90820080 0.00000000 
0.58094367 -2.29409469 -0.28526559 
0.47130314 -1.86113402 -0.38773576 
0.43619786 -1.72250639 -0.20847554 
0.47689828 -1.88322873 0.21982860 
0.56821320 -2.24382319 0.74200312 
0.66998320 -2.64570383 1.14306916 
0.74419547 -2.93876145 1.23833617 
0.77048294 -3.04256833 0.95297492 
0.75352906 -2.97561898 0.35732959 
0.71938386 -2.84078261 -0.35732959 
0.70242998 -2.77383327 -0.95297492 
0.72871745 -2.87764014 -1.23833617 
0.80292972 -3.17069777 -1.14306916 
0.90469972 -3.57257840 -0.74200312 
0.99601464 -3.93317286 -0.21982860 
1.03671506 -4.09389520 0.20847554 
1.00160978 -3.95526757 0.38773576 
0.89196925 -3.52230691 0.28526559 
0.73645646 -2.90820080 0.00000000 
1.64084447 -2.51149943 0.00000000 
1.32476445 -2.02770294 -0.38564409 
1.09303898 -1.67302071 -0.56022915 
0.99975239 -1.53023495 -0.40695140 
1.05063928 -1.60812313 0.04280029 
1.20430790 -1.84333047 0.61907841 
1.39185577 -2.13039386 1.08290980 
1.54637117 -2.36689728 1.22663578 
1.62983111 -2.49464222 0.96279186 
1.64619540 -2.51968964 0.36390303 
1.63549355 -2.50330923 -0.36390303 
1.65185784 -2.52835665 -0.96279186 
1.73531778 -2.65610159 -1.22663578 
1.88983318 -2.89260501 -1.08290980 
2.07738105 -3.17966840 -0.61907841 
2.23104967 -3.41487574 -0.04280029 
2.28193656 -3.49276392 0.40695140 
2.18864997 -3.34997816 0.56022915 
1.95692450 -2.99529593 0.38564409 
1.64084447 -2.51149943 0.00000000 
2.36742153 -1.84263814 0.00000000 
1.96768959 -1.53151428 -0.47550323 
1.66059096 -1.29248982 -0.71744094 
1.50792314 -1.17366369 -0.59432669 
1.52192427 -1.18456121 -0.13539550 
1.66576275 -1.29651519 0.47926686 
1.87242128 -1.45736398 0.99321147 
2.07364827 -1.61398523 1.18147596 
2.22669273 -1.73310452 0.94634636 
2.32776986 -1.81177600 0.36055013 
2.40707320 -1.87350027 -0.36055013 
2.50815033 -1.95217176 -0.94634636 
2.66119479 -2.07129105 -1.18147596 
2.86242178 -2.22791230 -0.99321147 
3.06908030 -2.38876108 -0.47926686 
3.21291878 -2.50071507 0.13539550 
3.22691991 -2.51161258 0.59432669 
3.07425210 -2.39278645 0.71744094 
2.76715347 -2.15376200 0.47550323 
2.36742153 -1.84263814 0.00000000 
2.83745173 -0.97409841 0.00000000 
2.43891547 -0.83728074 -0.55239188 
2.11352918 -0.72557548 -0.85508282 
1.91388015 -0.65703588 -0.76549030 
1.85898745 -0.63819120 -0.30989805 
1.93334408 -0.66371786 0.32638215 
2.09764559 -0.72012264 0.87642093 
2.30622668 -0.79172862 1.10408856 
2.52375912 -0.86640760 0.90408698 
2.73444659 -0.93873670 0.34736237 
2.94045686 -1.00946011 -0.34736237 
3.15114433 -1.08178921 -0.90408698 
3.36867677 -1.15646820 -1.10408856 
3.57725786 -1.22807418 -0.87642093 
3.74155937 -1.28447896 -0.32638215 
3.81591600 -1.31000562 0.30989805 
3.76102330 -1.29116093 0.76549030 
3.56137428 -1.22262133 0.85508282 
3.23598798 -1.11091608 0.55239188 
2.83745173 -0.97409841 0.00000000 
3.00000000 -0.00000000 0.00000000 
2.67530053 -0.00000000 -0.61421271 
2.38578729 -0.00000000 -0.96940027 
2.16283352 -0.00000000 -0.91577333 
2.03059973 -0.00000000 -0.47594739 
2.00341551 -0.00000000 0.16459459 
2.08422667 -0.00000000 0.73572391 
2.26427609 -0.00000000 0.99658449 
2.52405261 -0.00000000 0.83716648 
2.83540541 -0.00000000 0.32469947 
3.16459459 -0.00000000 -0.32469947 
3.47594739 -0.00000000 -0.83716648 
3.73572391 -0.00000000 -0.99658449 
3.91577333 -0.00000000 -0.73572391 
3.99658449 -0.00000000 -0.16459459 
3.96940027 -0.00000000 0.47594739 
3.83716648 -0.00000000 0.91577333 
3.61421271 -0.00000000 0.96940027 
3.32469947 -0.00000000 0.61421271 
3.00000000 -0.00000000 0.00000000 
